ply
format ascii 1.0
element vertex 1398
property float x
property float y
property float z
end_header
-0.44971743 -1.0039502 -0.8071717
-0.44983074 -1.0072896 -0.80490714
-0.52421737 -1.1918517 -0.90782464
-0.52660096 -1.2005484 -0.9089193
-0.52673185 -1.2044061 -0.9063033
-0.5275761 -1.20981 -0.9048517
-0.5272133 -1.212599 -0.9014289
-0.5262331 -1.2140363 -0.89700955
-0.52636373 -1.2178879 -0.8943977
-0.5245784 -1.2175385 -0.888697
-0.52368385 -1.2191237 -0.8844471
-0.5238138 -1.2229552 -0.8818489
-0.5215249 -1.2214376 -0.8753877
-0.52033615 -1.2223291 -0.8707019
-0.52046525 -1.226135 -0.86812097
-0.5177698 -1.2236414 -0.8610715
-0.5163584 -1.2239839 -0.85607505
-0.51349413 -1.2210485 -0.84881026
-0.51362157 -1.2248043 -0.84626335
-0.5120907 -1.2248195 -0.8411259
-0.5103743 -1.2243946 -0.8357163
-0.5105009 -1.2281265 -0.8331855
-0.5096154 -1.2295566 -0.82908887
-0.5097145 -1.2332191 -0.82652074
-0.50984085 -1.2369441 -0.82399476
-0.50748575 -1.2349784 -0.8176667
-0.5051513 -1.2330288 -0.8113947
-0.50096095 -1.2267691 -0.8023218
-0.50108516 -1.230431 -0.79983854
-0.4960316 -1.2220889 -0.78952456
-0.49073008 -1.2131056 -0.778888
-0.49085185 -1.2166953 -0.7764536
-0.48403823 -1.204076 -0.76363343
-0.4797279 -1.1972364 -0.75461817
-0.47984704 -1.2007489 -0.75223625
-0.47553882 -1.193831 -0.7432898
-0.47148103 -1.1874492 -0.7347573
-0.46873686 -1.1841265 -0.7282007
-0.46885332 -1.1875612 -0.7258715
-0.46676728 -1.185752 -0.7203203
-0.46491957 -1.1844841 -0.7151381
-0.46503514 -1.1878905 -0.7128281
-0.464287 -1.1892245 -0.70926744
-0.46343967 -1.1903092 -0.705572
-0.46227372 -1.190613 -0.7014278
-0.46238858 -1.1939985 -0.699132
-0.46025068 -1.1919223 -0.69361854
-0.45557335 -1.1836456 -0.6845124
-0.4556866 -1.1869832 -0.68224895
-0.4486114 -1.1727589 -0.6698236
-0.44246778 -1.1607271 -0.65878135
-0.44257793 -1.1639739 -0.6565796
-0.43790463 -1.1554451 -0.6476863
-0.435906 -1.1534579 -0.64256847
-0.43396333 -1.1515831 -0.637549
-0.4340714 -1.1547693 -0.6353884
-0.4330034 -1.1550313 -0.6316055
-0.43236184 -1.1563417 -0.6284203
-0.4324695 -1.1595149 -0.6262685
-0.43187386 -1.1609263 -0.6231569
-0.43199855 -1.164138 -0.6210316
-0.43210602 -1.1673065 -0.61888295
-0.43187818 -1.1696291 -0.61628157
-0.43204153 -1.1729368 -0.61420953
-0.43189517 -1.1754599 -0.61172205
-0.4320025 -1.1786249 -0.6095758
-0.4330117 -1.1840879 -0.60862935
-0.4333451 -1.1878358 -0.6067783
-0.43345273 -1.1910083 -0.6046269
-0.4336623 -1.1944425 -0.6026095
-0.43393928 -1.1980517 -0.6006797
-0.43404695 -1.201226 -0.598527
-0.4341069 -1.204277 -0.5963122
-0.43391374 -1.2066715 -0.59376985
-0.4335829 -1.2087048 -0.59105253
-0.4336904 -1.2118739 -0.5889034
-0.4351106 -1.2184688 -0.588437
-0.43588752 -1.2233969 -0.5871363
-0.43599546 -1.2265793 -0.58497816
-0.43992496 -1.239805 -0.5876628
-0.7877744 -0.43840542 -2.3631308
-0.7879753 -0.4443287 -2.359114
-0.78387886 -0.4478331 -2.342748
-0.7831796 -0.45321304 -2.336173
-0.78337926 -0.459099 -2.3321815
-0.78236663 -0.46427712 -2.3247268
-0.77775556 -0.4673115 -2.3070242
-0.77795374 -0.4731543 -2.3030622
-0.7736062 -0.47624677 -2.2861884
-0.7673338 -0.47809744 -2.2639086
-0.7607538 -0.47966686 -2.24083
-0.76094764 -0.48538217 -2.2369542
-0.75333655 -0.48615643 -2.2110827
-0.7443057 -0.4859126 -2.181304
-0.7444954 -0.49150607 -2.1775107
-0.73507935 -0.49081674 -2.1468062
-0.7240192 -0.48890615 -2.1116107
-0.7242039 -0.49435043 -2.1079187
-0.71201473 -0.49144202 -2.0697656
-0.69867337 -0.4875749 -2.0285463
-0.6831697 -0.48202935 -1.9814786
-0.68334436 -0.48717657 -1.977988
-0.667527 -0.48108235 -1.9303128
-0.65696645 -0.47849703 -1.8973088
-0.65713453 -0.48345345 -1.8939477
-0.6480832 -0.4817364 -1.8652661
-0.6416035 -0.48177052 -1.8437349
-0.64176786 -0.48661375 -1.8404504
-0.63562965 -0.4867634 -1.8199606
-0.6304522 -0.48754773 -1.802158
-0.62702936 -0.4895889 -1.7891845
-0.62718993 -0.49432352 -1.7859737
-0.62384117 -0.49634722 -1.7732594
-0.6209345 -0.49866688 -1.7617788
-0.6210935 -0.50335467 -1.7585999
-0.62088734 -0.5077528 -1.7544378
-0.62501234 -0.5156117 -1.7619139
-0.6251722 -0.5203252 -1.7587174
-0.6962348 -0.58275646 -1.9451927
-0.7212517 -0.60836667 -2.0079675
-0.7217428 -0.6140162 -2.0051305
-0.7219259 -0.61941284 -2.0014708
-0.7171171 -0.62060785 -1.9845663
-0.7178862 -0.6264674 -1.9824857
-0.71806824 -0.6318327 -1.9788473
-0.7157296 -0.63502437 -1.9685625
-0.7135949 -0.63835853 -1.9588416
-0.71334815 -0.6433149 -1.9541037
-0.7135289 -0.6486429 -1.9504907
-0.7112317 -0.65176564 -1.9403975
-0.70924413 -0.655132 -1.9311395
-0.7094237 -0.66042703 -1.9275488
-0.7065074 -0.6629029 -1.9159122
-0.70337677 -0.66513985 -1.9037536
-0.70355487 -0.6703894 -1.9001937
-0.7012181 -0.6732975 -1.8901397
-0.6979334 -0.6752816 -1.8776692
-0.69642323 -0.6788951 -1.8698001
-0.6965995 -0.6840904 -1.866277
-0.69492227 -0.68750906 -1.8580076
-0.6934448 -0.6910953 -1.8502686
-0.6936202 -0.69626576 -1.8467623
-0.69154185 -0.69922966 -1.8375212
-0.6857118 -0.6984638 -1.818778
-0.6858852 -0.7035759 -1.8153114
-0.67852616 -0.70115876 -1.7928001
-0.65780586 -0.68519175 -1.7366593
-0.6456965 -0.67766464 -1.7024231
-0.6458602 -0.68248916 -1.6991514
-0.5031692 -0.54062057 -1.3377701
-0.38940594 -0.4267076 -1.0502886
-0.38950813 -0.4297196 -1.048246
-0.33061504 -0.37094596 -0.89926654
-0.32724243 -0.36989382 -0.88890547
-0.32732967 -0.3724652 -0.8871618
-0.32339624 -0.37074372 -0.87546885
-0.32096958 -0.37058663 -0.8675395
-0.31784075 -0.3696362 -0.8579073
-0.31792566 -0.37213886 -0.8562102
-0.3148099 -0.37113723 -0.84666157
-0.3118753 -0.37029186 -0.8375909
-0.3119587 -0.3727507 -0.8359235
-0.30884197 -0.37164086 -0.82645744
-0.30591196 -0.37069708 -0.8174795
-0.30599388 -0.3731122 -0.81584173
-0.30288517 -0.37190446 -0.8064797
-0.30032238 -0.37127712 -0.7984705
-0.2973934 -0.37019324 -0.78960687
-0.29747322 -0.3725462 -0.78801125
-0.294719 -0.37160456 -0.7796153
-0.29215747 -0.37084994 -0.77171075
-0.29223597 -0.3731644 -0.77014124
-0.28948417 -0.37213135 -0.76182544
-0.28654236 -0.3708341 -0.753088
-0.28661948 -0.37310752 -0.7515463
-0.28368095 -0.37175325 -0.7428648
-0.28073552 -0.37035006 -0.73419917
-0.27798283 -0.36914068 -0.72602
-0.27805784 -0.3713519 -0.72452044
-0.2752924 -0.3700698 -0.7163564
-0.27253598 -0.3687607 -0.7082436
-0.27260965 -0.37093216 -0.7067711
-0.2698412 -0.36955103 -0.6986753
-0.26727033 -0.36838007 -0.69106907
-0.2673427 -0.3705131 -0.68962264
-0.26476517 -0.36928058 -0.682043
-0.26237094 -0.36824656 -0.6749148
-0.2599805 -0.36718434 -0.6678213
-0.26005107 -0.36926436 -0.66641074
-0.25765884 -0.3681505 -0.6593523
-0.25526103 -0.3669964 -0.6523071
-0.25533044 -0.36904195 -0.65092
-0.2529355 -0.3678422 -0.6439204
-0.25072882 -0.36685875 -0.63737464
-0.2507971 -0.36887115 -0.63600993
-0.24858887 -0.36784008 -0.62949663
-0.24637485 -0.36677086 -0.62299424
-0.2439796 -0.36542657 -0.61610794
-0.24404621 -0.36738995 -0.6147765
-0.2418343 -0.36624646 -0.6083399
-0.23980634 -0.36532474 -0.6023385
-0.2398719 -0.36725762 -0.6010277
-0.23765743 -0.36603603 -0.59464425
-0.2354463 -0.3647888 -0.5882922
-0.2355108 -0.36668995 -0.587003
-0.23329332 -0.36538854 -0.58067286
-0.23126088 -0.36431772 -0.5747743
-0.22923176 -0.36322376 -0.568905
-0.2292947 -0.36507982 -0.5676464
-0.22726405 -0.36394212 -0.56180674
-0.22523236 -0.3627752 -0.5559867
-0.22529435 -0.36460212 -0.5547478
-0.22345172 -0.3636678 -0.5493715
-0.2214215 -0.36243495 -0.5436083
-0.22148253 -0.3642341 -0.54238826
-0.21963358 -0.3632263 -0.53704906
-0.21779153 -0.36220342 -0.5317445
-0.21613154 -0.36142537 -0.5268505
-0.21619126 -0.36318603 -0.5256565
-0.21434304 -0.36209244 -0.52038753
-0.21249817 -0.36097863 -0.5151454
-0.212557 -0.36271283 -0.5139694
-0.2107022 -0.3615464 -0.5087361
-0.20866455 -0.36007643 -0.5031359
-0.20662141 -0.35857052 -0.49754602
-0.2066788 -0.3602623 -0.49639875
-0.20482557 -0.35900775 -0.4912403
-0.20316212 -0.35802206 -0.4864991
-0.20321865 -0.3596887 -0.48536888
-0.20193657 -0.3592647 -0.48144922
-0.2004624 -0.3585219 -0.47714412
-0.20051827 -0.3601687 -0.4760274
-0.1998208 -0.36062413 -0.4733526
-0.19909644 -0.36102697 -0.47063005
-0.19878614 -0.3620799 -0.46876776
-0.19884156 -0.3637135 -0.46765998
-0.19889604 -0.36534554 -0.46655014
-0.19969817 -0.36818454 -0.4669675
-0.19975376 -0.36982328 -0.4658562
-0.20002013 -0.3718051 -0.46517324
-0.20102961 -0.37500364 -0.46599433
-0.20108548 -0.37665048 -0.46487755
-0.20192519 -0.37958816 -0.46534148
-0.20183665 -0.38100132 -0.46393025
-0.20328669 -0.3849665 -0.46560737
-0.20334303 -0.38662738 -0.46448106
-0.20364207 -0.3886942 -0.46383923
-0.20404734 -0.39094266 -0.46340635
-0.20410381 -0.3926076 -0.4622773
-0.20470037 -0.39518654 -0.46221793
-0.20450982 -0.39643535 -0.4605981
-0.20456637 -0.39810234 -0.45946768
-0.20405106 -0.39879033 -0.45721346
-0.2043012 -0.40078625 -0.4564654
-0.20434801 -0.402434 -0.45531785
-0.20440447 -0.40409827 -0.45418927
-0.20464775 -0.40608722 -0.45342395
-0.204894 -0.4080838 -0.45266253
-0.20495056 -0.40975067 -0.45153216
-0.20521866 -0.41178936 -0.45081
-0.20565873 -0.41413406 -0.4504165
-0.20571542 -0.41580498 -0.44928336
-0.20579189 -0.41751114 -0.44818807
-0.20641035 -0.42018396 -0.44812718
-0.20726565 -0.42328784 -0.44851148
-0.20732266 -0.4249683 -0.4473719
-0.2087326 -0.42908737 -0.44879422
-0.21052979 -0.43392426 -0.45093402
-0.2105875 -0.435626 -0.44978002
-0.21257545 -0.44084415 -0.45225158
-0.21475609 -0.4464394 -0.45506445
-0.21481477 -0.4481689 -0.4538916
-0.2164661 -0.4528306 -0.45568597
-0.21887971 -0.45892107 -0.45888034
-0.2212878 -0.46503162 -0.4620406
-0.22134794 -0.4668043 -0.4608385
-0.2238522 -0.47313955 -0.46414018
-0.22650762 -0.4797894 -0.46769482
-0.22656892 -0.48159656 -0.46646935
-0.22931887 -0.48847458 -0.47015727
-0.23345678 -0.49801362 -0.4763474
-0.23351966 -0.4998671 -0.47509047
-0.2372708 -0.5087475 -0.48051775
-0.24199745 -0.5195401 -0.48767075
-0.24998833 -0.5366529 -0.5006593
-0.250055 -0.53861785 -0.49932683
-0.2623327 -0.56415975 -0.51987755
-0.27255455 -0.585875 -0.536631
-0.27262637 -0.58799267 -0.5351949
-0.2805392 -0.6053999 -0.54769164
-0.28444248 -0.6150632 -0.5530049
-0.28451705 -0.61726063 -0.55151474
-0.2900013 -0.63011014 -0.5595554
-0.29425687 -0.6406014 -0.56538314
-0.29833987 -0.650804 -0.5708666
-0.29841757 -0.65309423 -0.56931347
-0.30243593 -0.6632442 -0.57462376
-0.30833447 -0.6772063 -0.58315957
-0.3084144 -0.6795631 -0.5815613
-0.31307593 -0.6911453 -0.5878737
-0.32275006 -0.7129109 -0.6027697
-0.3228333 -0.7153643 -0.6011059
-0.332732 -0.73776895 -0.61624193
-0.35178444 -0.77896214 -0.64690065
-0.37136033 -0.8214663 -0.67825997
-0.37145472 -0.8242484 -0.67637336
-0.40341318 -0.8926058 -0.72838527
-0.43016282 -0.95061386 -0.77129364
-0.43027067 -0.95379406 -0.769137
-0.45380482 -1.0056293 -0.80625474
-0.5287898 -1.1899413 -0.90937525
-0.5289202 -1.1937835 -0.90676963
-0.5313226 -1.202488 -0.90786004
-0.5321727 -1.2078894 -0.9064104
-0.5318058 -1.2106802 -0.90298617
-0.5319367 -1.2145394 -0.90036917
-0.53094727 -1.2159728 -0.895952
-0.5291463 -1.2156299 -0.89024603
-0.52927655 -1.2194685 -0.8876431
-0.5283734 -1.22105 -0.8833951
-0.5260649 -1.2195408 -0.8769272
-0.5261943 -1.2233557 -0.87434024
-0.52499455 -1.2242427 -0.86965686
-0.52227616 -1.2217586 -0.8625996
-0.5208522 -1.2221062 -0.85759896
-0.5209803 -1.2258824 -0.8550382
-0.51809114 -1.2229369 -0.8477789
-0.5165468 -1.2229576 -0.842637
-0.5166738 -1.2267022 -0.8400977
-0.51494205 -1.2262709 -0.8346915
-0.5140484 -1.2277043 -0.83059216
-0.51417476 -1.2314295 -0.82806605
-0.5142736 -1.2350919 -0.825498
-0.51189846 -1.2331347 -0.8191631
-0.509544 -1.2311935 -0.8128842
-0.5096692 -1.2348847 -0.8103811
-0.5054429 -1.2286102 -0.8013163
-0.50034755 -1.2202857 -0.7909881
-0.5004706 -1.2239124 -0.78852874
-0.49512383 -1.2149104 -0.7779023
-0.4882542 -1.2023146 -0.76506305
-0.48837435 -1.2058573 -0.7626607
-0.48402718 -1.1990024 -0.75365376
-0.47968313 -1.1920993 -0.7446952
-0.4755916 -1.1857316 -0.7361512
-0.47570878 -1.1891859 -0.7338089
-0.47294083 -1.1858534 -0.7272576
-0.47083697 -1.1840516 -0.7217004
-0.47095302 -1.1874714 -0.7193813
-0.46908897 -1.1861968 -0.71420276
-0.46833387 -1.1875337 -0.7106397
-0.46844926 -1.1909343 -0.7083337
-0.46759388 -1.1920156 -0.70464003
-0.4664173 -1.1923151 -0.7004983
-0.4642613 -1.1902466 -0.69497854
-0.46437562 -1.1936167 -0.6926932
-0.4596586 -1.1853237 -0.6835959
-0.45252547 -1.1711235 -0.67115086
-0.45263705 -1.1744126 -0.66892046
-0.44644162 -1.1623595 -0.65788984
-0.44172984 -1.153847 -0.6489834
-0.44183886 -1.1570612 -0.64680374
-0.4398228 -1.1550668 -0.6416897
-0.43786308 -1.1531851 -0.6366741
-0.43678573 -1.153451 -0.6328881
-0.43689352 -1.1566292 -0.63073283
-0.43624577 -1.1579372 -0.627549
-0.43564445 -1.1593509 -0.62443554
-0.43575191 -1.1625193 -0.62228686
-0.43587673 -1.1657311 -0.6201616
-0.43564624 -1.1680547 -0.6175594
-0.43575364 -1.171221 -0.6154122
-0.4359174 -1.1745288 -0.61334
-0.435769 -1.1770512 -0.610853
-0.43678537 -1.1825111 -0.60990906
-0.43689293 -1.1856822 -0.60775864
-0.43722823 -1.1894308 -0.6059072
-0.4374386 -1.1928647 -0.6038902
-0.43754625 -1.1960379 -0.6017383
-0.43782464 -1.1996477 -0.5998081
-0.43788424 -1.2026987 -0.5975932
-0.4379919 -1.2058729 -0.5954407
-0.4377962 -1.2082664 -0.5928989
-0.43746182 -1.2102982 -0.59018236
-0.43889248 -1.2168887 -0.5897194
-0.4390003 -1.2200665 -0.58756435
-0.43978268 -1.2249969 -0.5862624
-0.44374278 -1.2382098 -0.5889574
-0.44385162 -1.241418 -0.5867819
-0.79122573 -0.45665112 -2.336949
-0.7910742 -0.46234092 -2.3319573
-0.791274 -0.46823034 -2.3279636
-0.7854841 -0.4705893 -2.3070502
-0.77885365 -0.47236368 -2.2838335
-0.77340883 -0.47475833 -2.2640278
-0.77360415 -0.4805166 -2.260123
-0.7657554 -0.48130977 -2.2336726
-0.75838065 -0.48228696 -2.2086365
-0.7585722 -0.4879345 -2.2048068
-0.75004643 -0.48801947 -2.1766877
-0.7401795 -0.48711857 -2.1449351
-0.7403665 -0.49263284 -2.1411958
-0.72971016 -0.49100256 -2.1074214
-0.7185709 -0.48890045 -2.072431
-0.70658857 -0.4860743 -2.0352387
-0.7067673 -0.49134526 -2.0316644
-0.69204175 -0.48638317 -1.987133
-0.67838836 -0.48195854 -1.9457048
-0.67856026 -0.487026 -1.9422685
-0.66747797 -0.48413318 -1.9080901
-0.6571283 -0.48160818 -1.8760316
-0.6572949 -0.48652157 -1.8726996
-0.64905685 -0.48531613 -1.8465466
-0.642758 -0.48541993 -1.8257402
-0.6379242 -0.48652148 -1.8089662
-0.63808614 -0.4912945 -1.8057294
-0.6348189 -0.49347636 -1.7932563
-0.63362104 -0.497189 -1.7863832
-0.6337818 -0.50192815 -1.7831694
-0.6339861 -0.5067011 -1.7800722
-0.6403164 -0.51627195 -1.7933419
-0.6404787 -0.521055 -1.7900983
-0.73086274 -0.61880225 -2.0102851
-0.7270806 -0.62092054 -1.9961681
-0.7272633 -0.62630695 -1.9925154
-0.72558314 -0.63011956 -1.9839764
-0.723397 -0.63347584 -1.974133
-0.72357875 -0.63883245 -1.9705006
-0.7209397 -0.64174825 -1.9595151
-0.7196077 -0.6457654 -1.9519598
-0.71772325 -0.6492764 -1.942987
-0.71790344 -0.6545879 -1.9393849
-0.7153877 -0.6574932 -1.9288135
-0.7122739 -0.6598236 -1.916728
-0.71245265 -0.6650931 -1.9131545
-0.70917994 -0.6672112 -1.9007139
-0.70584327 -0.6692234 -1.8881463
-0.70602036 -0.6744439 -1.8846061
-0.70256895 -0.6762774 -1.8718023
-0.7013808 -0.6801896 -1.8648036
-0.6999059 -0.68381155 -1.8570902
-0.70008135 -0.6889855 -1.8535815
-0.69903785 -0.6929884 -1.8469871
-0.69600815 -0.6950531 -1.835388
-0.69618255 -0.700196 -1.8319004
-0.6866572 -0.69582343 -1.8040131
-0.6765616 -0.69075614 -1.7747984
-0.67673135 -0.6957591 -1.7714058
-0.662723 -0.6865656 -1.7325763
-0.6368678 -0.66523755 -1.6643507
-0.5437908 -0.57533884 -1.4291053
-0.5439288 -0.5794074 -1.4263463
-0.4609096 -0.49796146 -1.2175175
-0.34214672 -0.37839422 -0.92119044
-0.3422368 -0.38104907 -0.9193901
-0.33165836 -0.372517 -0.8913231
-0.32741773 -0.37052953 -0.87894005
-0.32750422 -0.37307954 -0.8772108
-0.32430527 -0.372118 -0.86744505
-0.32053414 -0.37049675 -0.8563176
-0.31756723 -0.36969402 -0.8471897
-0.31765133 -0.37217277 -0.8455088
-0.3146973 -0.37132257 -0.8364609
-0.31174245 -0.3704307 -0.8274433
-0.3118251 -0.37286705 -0.8257911
-0.308679 -0.37170053 -0.8163612
-0.30573052 -0.3707124 -0.8074402
-0.30581167 -0.37310508 -0.80581766
-0.3030415 -0.37225863 -0.79737175
-0.30027062 -0.37137312 -0.78895426
-0.2973082 -0.37022936 -0.7801107
-0.2973873 -0.37256107 -0.7785295
-0.29461244 -0.37157425 -0.77017903
-0.2920269 -0.3707706 -0.76230663
-0.2921047 -0.3730639 -0.7607515
-0.28932616 -0.37197858 -0.7524667
-0.28616676 -0.3704021 -0.74331665
-0.28320435 -0.369018 -0.7346628
-0.28328 -0.37124774 -0.7331507
-0.2806878 -0.37025067 -0.7254094
-0.27790377 -0.36898464 -0.7172491
-0.2779781 -0.37117594 -0.7157631
-0.2750097 -0.36962613 -0.7072204
-0.27221426 -0.36824957 -0.69911
-0.2722872 -0.37039983 -0.6976518
-0.26950586 -0.3689837 -0.6896191
-0.26709658 -0.36799693 -0.68247133
-0.26449537 -0.3667348 -0.6749096
-0.26456642 -0.36882943 -0.6734891
-0.26214728 -0.36774644 -0.66638494
-0.25991827 -0.36687425 -0.65973985
-0.2599882 -0.36893564 -0.65834194
-0.2575738 -0.3677775 -0.6513127
-0.2549742 -0.36634514 -0.6438907
-0.25504288 -0.36837083 -0.64251703
-0.25280976 -0.36736763 -0.6359617
-0.25058284 -0.36634228 -0.6294446
-0.24835461 -0.36528474 -0.62294835
-0.2484217 -0.36726272 -0.621607
-0.2461842 -0.3661472 -0.615126
-0.24395318 -0.3650101 -0.6086837
-0.2440192 -0.36695623 -0.607364
-0.24197826 -0.36603245 -0.6013783
-0.23974507 -0.36481777 -0.5949899
-0.23981003 -0.3667334 -0.5936909
-0.23757485 -0.3654706 -0.58733404
-0.23533899 -0.36417642 -0.58099955
-0.23330078 -0.3631278 -0.57512164
-0.2333642 -0.36499715 -0.57385397
-0.23131011 -0.3638847 -0.56797427
-0.22926185 -0.36275253 -0.5621291
-0.22932425 -0.3645927 -0.5608812
-0.22708988 -0.36315325 -0.5546665
-0.2252313 -0.36222267 -0.5492862
-0.22529273 -0.36403373 -0.5480581
-0.22342633 -0.363054 -0.5426909
-0.22156549 -0.36205718 -0.5373556
-0.21969727 -0.3610244 -0.5320245
-0.21975735 -0.36279565 -0.53082335
-0.21808654 -0.36201587 -0.52594185
-0.21622932 -0.3609375 -0.5206829
-0.21628855 -0.36268362 -0.51949877
-0.21423763 -0.36127838 -0.5138606
-0.2123642 -0.3601118 -0.5086179
-0.21242249 -0.3618301 -0.50745267
-0.2103619 -0.3603425 -0.50184774
-0.20811655 -0.35854647 -0.4958784
-0.20624672 -0.35729355 -0.49071583
-0.20630352 -0.35896814 -0.4895802
-0.20463611 -0.35798904 -0.4848673
-0.2035493 -0.35788482 -0.4813738
-0.20360544 -0.35953975 -0.48025155
-0.20268697 -0.35967565 -0.4771223
-0.20215046 -0.3603966 -0.47478765
-0.20220624 -0.36204076 -0.47367272
-0.20205794 -0.36336285 -0.47214067
-0.20231196 -0.3653198 -0.47143096
-0.20316531 -0.36823294 -0.47193807
-0.20322126 -0.36988252 -0.47081944
-0.20404033 -0.37275615 -0.47124493
-0.20490171 -0.37570783 -0.47174793
-0.20495804 -0.37736812 -0.47062203
-0.20564812 -0.3800574 -0.47076878
-0.2065135 -0.38304058 -0.4712601
-0.20657015 -0.38471073 -0.4701275
-0.20656031 -0.38627172 -0.46886238
-0.20780432 -0.3898999 -0.4700901
-0.20916113 -0.39373016 -0.47152933
-0.20921835 -0.39541695 -0.4703855
-0.20926285 -0.3970825 -0.46921653
-0.20904925 -0.39831552 -0.46754003
-0.2091064 -0.40000036 -0.46639746
-0.20817903 -0.40002322 -0.46332815
-0.20817408 -0.40159646 -0.46206942
-0.20823099 -0.40327415 -0.46093172
-0.20811671 -0.40465954 -0.45946163
-0.20815793 -0.40630925 -0.45829448
-0.2082311 -0.4080137 -0.4571891
-0.20828797 -0.4096902 -0.4560522
-0.20853782 -0.4117011 -0.4552861
-0.20953484 -0.41501436 -0.4559499
-0.20959197 -0.4166986 -0.45480776
-0.21006013 -0.41910315 -0.4544492
-0.21016888 -0.4208808 -0.45340306
-0.21060535 -0.42323762 -0.45297787
-0.21066268 -0.4249276 -0.45183185
-0.21172804 -0.42840993 -0.45258698
-0.21372937 -0.43357533 -0.4550925
-0.21378738 -0.4352854 -0.45393282
-0.21620595 -0.44123793 -0.45718938
-0.21840754 -0.44682938 -0.46001735
-0.21846658 -0.4485701 -0.4588369
-0.22031797 -0.4535665 -0.46098256
-0.22298545 -0.4600732 -0.4646204
-0.22630654 -0.4678088 -0.46943828
-0.22636737 -0.4696017 -0.46822247
-0.22964413 -0.47731814 -0.47290987
-0.23455423 -0.48809427 -0.4805546
-0.2346169 -0.48994198 -0.47930163
-0.23983975 -0.50139284 -0.4874427
-0.24511762 -0.51301205 -0.4956317
-0.24518268 -0.51493025 -0.4943309
-0.25141314 -0.52843994 -0.5041613
-0.2592531 -0.54506433 -0.5168275
-0.26615345 -0.5600088 -0.5277287
-0.26622328 -0.5620679 -0.5263323
-0.2740065 -0.57882476 -0.538707
-0.28225017 -0.59655994 -0.5518243
-0.2823237 -0.59872675 -0.5503549
-0.29323614 -0.6217534 -0.568074
-0.29745728 -0.63199735 -0.5738723
-0.29753423 -0.6342657 -0.57233405
-0.30146465 -0.6440235 -0.57756
-0.30783084 -0.65857923 -0.5870107
-0.31568894 -0.676133 -0.5990027
-0.31577 -0.67852277 -0.5973821
-0.32427806 -0.6975035 -0.61038536
-0.33051693 -0.7121087 -0.61937815
-0.33060136 -0.71459717 -0.6176906
-0.3368575 -0.72935337 -0.6266212
-0.34541163 -0.7487695 -0.63943225
-0.3454994 -0.75135696 -0.6376776
-0.37522984 -0.8134263 -0.6864782
-0.39302573 -0.85184544 -0.71468914
-0.4151925 -0.8993133 -0.7501351
-0.41529617 -0.9023696 -0.7480625
-0.4381366 -0.9516224 -0.78431517
-0.4640994 -1.0075247 -0.8255898
-0.4642142 -1.0109091 -0.8232947
-0.4848437 -1.0563618 -0.8552741
-0.53303856 -1.2051564 -0.89633584
-0.53336626 -1.2094159 -0.8940503
-0.53349644 -1.2132529 -0.89144826
-0.53372926 -1.2173113 -0.8890092
-0.53227496 -1.2177216 -0.88390034
-0.5324048 -1.2215487 -0.88130504
-0.53065234 -1.2212806 -0.87575084
-0.5291191 -1.2214674 -0.87055856
-0.52924806 -1.2252705 -0.86797947
-0.5279401 -1.2259206 -0.8631624
-0.5258528 -1.2248379 -0.8571498
-0.5224437 -1.2208111 -0.8491135
-0.5225711 -1.2245661 -0.84656715
-0.5213643 -1.2253604 -0.8419691
-0.51997465 -1.2257314 -0.8371041
-0.52010137 -1.2294673 -0.83457065
-0.5190952 -1.230668 -0.8303116
-0.51890737 -1.2336911 -0.8273063
-0.51903373 -1.2374172 -0.82477945
-0.51675737 -1.2357222 -0.8186283
-0.51337737 -1.2315007 -0.81084156
-0.50872135 -1.2243409 -0.8011766
-0.5088453 -1.2279955 -0.79869825
-0.5026128 -1.2171514 -0.7867562
-0.49702892 -1.207712 -0.7758385
-0.49715015 -1.2112861 -0.77341485
-0.4906931 -1.1997334 -0.7612935
-0.4858246 -1.1917623 -0.7515701
-0.48594323 -1.195259 -0.7491989
-0.48207277 -1.1895092 -0.7410053
-0.47781888 -1.1828191 -0.7322925
-0.4737533 -1.1765141 -0.72389525
-0.47386906 -1.1799269 -0.7215809
-0.47299355 -1.1810178 -0.71783894
-0.47065765 -1.1786664 -0.71201044
-0.47077262 -1.1820562 -0.7097117
-0.46967545 -1.1825839 -0.7056846
-0.46982655 -1.186052 -0.70344305
-0.46716556 -1.1828467 -0.69721943
-0.46727964 -1.1862103 -0.6949385
-0.46534026 -1.1846751 -0.6897697
-0.46011555 -1.1752576 -0.68001664
-0.46022803 -1.1785718 -0.6777691
-0.45149285 -1.1606181 -0.66320777
-0.446325 -1.1511528 -0.65367955
-0.44643426 -1.154373 -0.65149575
-0.44134519 -1.1450018 -0.6421524
-0.43971214 -1.1439595 -0.63760257
-0.43813345 -1.1430283 -0.6331438
-0.43824074 -1.146191 -0.630999
-0.43681335 -1.1455991 -0.6267701
-0.43614742 -1.1468562 -0.62358636
-0.4362542 -1.1500036 -0.621452
-0.43566996 -1.1514479 -0.61838925
-0.43581808 -1.1546932 -0.61631346
-0.4359247 -1.1578363 -0.61418205
-0.43604586 -1.1610156 -0.6120699
-0.43624264 -1.1643833 -0.6100578
-0.43574318 -1.1660147 -0.60712606
-0.4358497 -1.1691545 -0.60499686
-0.43689612 -1.1746511 -0.6040989
-0.43790817 -1.1800728 -0.6031472
-0.4380151 -1.1832249 -0.6010097
-0.43861026 -1.1876099 -0.59950465
-0.4380095 -1.1889734 -0.59645146
-0.43811637 -1.192124 -0.59431493
-0.43747377 -1.193368 -0.5912181
-0.4381207 -1.197891 -0.58977455
-0.43923673 -1.2036197 -0.5889224
-0.43934378 -1.2067757 -0.5867822
-0.4374397 -1.204767 -0.58210385
-0.44210792 -1.2196513 -0.5857084
-0.44221553 -1.2228241 -0.58355683
-0.44240564 -1.2262101 -0.5815083
-0.7980522 -0.45361784 -2.3388047
-0.798252 -0.45950845 -2.33481
-0.79772586 -0.46498236 -2.328776
-0.7925702 -0.46775666 -2.3097692
-0.79276854 -0.4736044 -2.3058035
-0.78633124 -0.4755054 -2.2833047
-0.77972454 -0.47721303 -2.2604058
-0.7725497 -0.47848094 -2.2360003
-0.77274305 -0.48418224 -2.2321339
-0.7654021 -0.48519436 -2.2073882
-0.7555893 -0.48454744 -2.175888
-0.7557785 -0.49012536 -2.1721056
-0.74696064 -0.48991162 -2.143509
-0.73672664 -0.4886537 -2.1111164
-0.7369112 -0.49409488 -2.1074264
-0.7255309 -0.49186143 -2.0720642
-0.7138971 -0.48929915 -2.0361342
-0.700184 -0.4851663 -1.9946601
-0.7003597 -0.49034578 -1.9911478
-0.6860761 -0.48553285 -1.9483494
-0.6735395 -0.48174095 -1.9104443
-0.6737088 -0.48672974 -1.9070612
-0.66435385 -0.4849409 -1.8779552
-0.65648836 -0.48409176 -1.8529667
-0.6566534 -0.48895735 -1.8496671
-0.64987624 -0.4887403 -1.8277303
-0.64638096 -0.49085358 -1.8146614
-0.64238894 -0.4925464 -1.8003036
-0.6425505 -0.49730855 -1.7970742
-0.6398174 -0.49987248 -1.7861363
-0.6384566 -0.5034483 -1.7788763
-0.6386171 -0.5081796 -1.7756679
-0.6510402 -0.52247465 -1.804918
-0.70081085 -0.56631905 -1.9326928
-0.700986 -0.5714832 -1.9291908
-0.7325146 -0.6017407 -2.0081744
-0.73799765 -0.6114024 -2.01844
-0.7353171 -0.6144913 -2.0072591
-0.7355003 -0.61989176 -2.0035968
-0.7343611 -0.62419796 -1.9964842
-0.7316062 -0.6271382 -1.985178
-0.73178834 -0.6325088 -1.9815359
-0.73059636 -0.63671434 -1.9743301
-0.7295745 -0.6410467 -1.9675795
-0.7274078 -0.6443766 -1.9578849
-0.72758883 -0.6497129 -1.9542662
-0.72524357 -0.6528388 -1.94415
-0.72170323 -0.6548767 -1.9309932
-0.72188276 -0.6601694 -1.927404
-0.7191664 -0.6628696 -1.9164132
-0.71530074 -0.664494 -1.9025217
-0.7154786 -0.66973835 -1.8989654
-0.7121099 -0.67173564 -1.8864005
-0.70917886 -0.67408884 -1.8749831
-0.7078163 -0.67785716 -1.8675654
-0.70799226 -0.68304443 -1.8640478
-0.70550746 -0.6857241 -1.8538287
-0.7016894 -0.6871022 -1.8402864
-0.70186377 -0.6922432 -1.8368001
-0.6983232 -0.69380784 -1.824016
-0.68626124 -0.68706185 -1.7899896
-0.6864319 -0.69209194 -1.7865784
-0.66471636 -0.675611 -1.7287393
-0.64150536 -0.65735644 -1.6674209
-0.61118674 -0.6317068 -1.5887498
-0.6113395 -0.63621074 -1.5856955
-0.56343085 -0.592187 -1.4641359
-0.4818571 -0.5133018 -1.2602552
-0.48197934 -0.51690495 -1.2578118
-0.35773963 -0.39244035 -0.9507011
-0.3356353 -0.37217352 -0.89458
-0.33572304 -0.37476003 -0.89282596
-0.3322443 -0.3736022 -0.88239115
-0.32834384 -0.3719512 -0.87096965
-0.32448593 -0.37029207 -0.8596932
-0.32457095 -0.37279892 -0.85799325
-0.32135403 -0.37175092 -0.84832585
-0.3183874 -0.37093002 -0.839296
-0.31847093 -0.37339285 -0.83762586
-0.31530982 -0.37229764 -0.82817763
-0.31213734 -0.37114665 -0.8187365
-0.31221935 -0.3735645 -0.8170969
-0.30959615 -0.37296182 -0.8090149
-0.30680242 -0.3721316 -0.8005563
-0.30365893 -0.3708679 -0.7912985
-0.30373886 -0.37322488 -0.78970015
-0.3009308 -0.37228045 -0.78128487
-0.2981329 -0.37130928 -0.7729237
-0.2982115 -0.37362644 -0.7713524
-0.2954107 -0.37259468 -0.7630297
-0.29261938 -0.37153578 -0.75475925
-0.29269662 -0.37381324 -0.75321484
-0.2895099 -0.37222958 -0.7440684
-0.2867051 -0.37105706 -0.7358437
-0.2838881 -0.36983174 -0.7276207
-0.28396323 -0.37204686 -0.72611856
-0.280974 -0.37055585 -0.7175433
-0.27797177 -0.3690086 -0.70897025
-0.27804548 -0.3711814 -0.70749676
-0.2754265 -0.37004426 -0.6998503
-0.27263397 -0.36865708 -0.69183487
-0.27270636 -0.37079158 -0.6903874
-0.27026555 -0.36978704 -0.6832175
-0.2676411 -0.36851874 -0.6756565
-0.26519963 -0.3674459 -0.6685384
-0.26527023 -0.36952728 -0.6671269
-0.26283655 -0.36841473 -0.6600654
-0.2604014 -0.36726737 -0.6530267
-0.26047084 -0.3693143 -0.6516386
-0.25783262 -0.36785454 -0.64418375
-0.25558722 -0.36687052 -0.6376351
-0.2556555 -0.36888295 -0.63627046
-0.25341 -0.36785328 -0.62975764
-0.2511625 -0.36679056 -0.6232642
-0.24890293 -0.3656815 -0.61676806
-0.24896957 -0.36764613 -0.6154358
-0.24690129 -0.3667478 -0.6093973
-0.24466099 -0.3655897 -0.6030026
-0.24472658 -0.3675239 -0.60169095
-0.24265714 -0.366553 -0.595706
-0.24023116 -0.36506674 -0.5889644
-0.24029568 -0.36696923 -0.58767426
-0.23823334 -0.36593607 -0.5817616
-0.23617056 -0.3648745 -0.57586986
-0.23409635 -0.36376926 -0.56997526
-0.23415938 -0.36562794 -0.5687148
-0.23209305 -0.364492 -0.56287026
-0.2300366 -0.36334223 -0.5570687
-0.23009868 -0.36517182 -0.555828
-0.22821444 -0.36422622 -0.5504273
-0.22633955 -0.36326864 -0.5450664
-0.2264007 -0.36507168 -0.5438437
-0.22433059 -0.36379418 -0.53809845
-0.22282101 -0.36330277 -0.5335616
-0.22095244 -0.36226743 -0.52828264
-0.22101228 -0.36403197 -0.527086
-0.21914178 -0.36295623 -0.52183276
-0.21706693 -0.36155346 -0.5161708
-0.21712583 -0.36329028 -0.514993
-0.21523222 -0.36211613 -0.50974184
-0.21297078 -0.36036602 -0.50374526
-0.21069734 -0.35856777 -0.49774742
-0.21075472 -0.3602595 -0.49660018
-0.2086849 -0.3587248 -0.49105868
-0.20660466 -0.3571468 -0.48551738
-0.20666106 -0.3588095 -0.48438987
-0.20614684 -0.3595956 -0.4820923
-0.20523287 -0.35975772 -0.47898293
-0.20528892 -0.36140993 -0.4778625
-0.20456977 -0.3618563 -0.47516453
-0.2040485 -0.36260173 -0.47287598
-0.205574 -0.3665499 -0.47473815
-0.20563006 -0.36820287 -0.47361723
-0.20687634 -0.37173787 -0.47489434
-0.20774017 -0.374681 -0.47539076
-0.2077967 -0.37634754 -0.47426063
-0.2086759 -0.37933087 -0.47477552
-0.20902243 -0.38146868 -0.47421956
-0.20907922 -0.38314283 -0.47308427
-0.21108022 -0.3879663 -0.4758072
-0.21214329 -0.39128938 -0.4766539
-0.21286951 -0.3940754 -0.4768253
-0.21292713 -0.39577413 -0.47567332
-0.21401013 -0.3991601 -0.47653544
-0.21343398 -0.39981845 -0.47413668
-0.2134917 -0.40151983 -0.47298294
-0.21201749 -0.40067098 -0.4688434
-0.21270527 -0.4034154 -0.46892217
-0.21276277 -0.4051107 -0.46777257
-0.21279447 -0.40676248 -0.4665731
-0.21205373 -0.4071083 -0.46388388
-0.21246918 -0.40940565 -0.46342704
-0.21252656 -0.4110977 -0.4622796
-0.21258247 -0.4127873 -0.4611293
-0.21253037 -0.41429144 -0.45977277
-0.21258774 -0.41598278 -0.45862582
-0.21299703 -0.41828248 -0.45814708
-0.21365015 -0.4210096 -0.45812643
-0.21370773 -0.42270732 -0.45697513
-0.21459316 -0.42585188 -0.45738316
-0.21469194 -0.42762715 -0.4563051
-0.2145976 -0.42906296 -0.45486477
-0.21465535 -0.43076557 -0.4537102
-0.21784016 -0.43801272 -0.45838305
-0.22122347 -0.4456527 -0.46339354
-0.22128272 -0.4473989 -0.4622094
-0.22339398 -0.45282254 -0.4648185
-0.22602467 -0.45920634 -0.46836472
-0.22608496 -0.46098375 -0.4671594
-0.22973584 -0.46926406 -0.4725376
-0.2330577 -0.47699192 -0.4772783
-0.23764418 -0.48706743 -0.48429257
-0.23770706 -0.48892152 -0.48303524
-0.24183172 -0.49823478 -0.48914427
-0.24939498 -0.51393586 -0.5014319
-0.24946052 -0.5158679 -0.5001218
-0.25865924 -0.5347454 -0.51523894
-0.2651162 -0.5486339 -0.5253473
-0.2651853 -0.55067044 -0.52396625
-0.2713973 -0.5642206 -0.5335424
-0.27792174 -0.5784359 -0.5436132
-0.28462008 -0.59306043 -0.5539283
-0.28469357 -0.5952264 -0.5524595
-0.291425 -0.6100391 -0.5627343
-0.29839477 -0.62538975 -0.5733623
-0.29847133 -0.62764686 -0.5718317
-0.3051773 -0.6426215 -0.58189577
-0.31070527 -0.655412 -0.5898396
-0.31078458 -0.6577503 -0.5882539
-0.31758878 -0.67311597 -0.59832996
-0.3271802 -0.6939827 -0.613159
-0.33891386 -0.71914554 -0.6315876
-0.33899954 -0.7216711 -0.62987494
-0.34737337 -0.74046004 -0.64237106
-0.36070675 -0.7691159 -0.663263
-0.36079732 -0.77178586 -0.6614524
-0.37444466 -0.80131227 -0.68268186
-0.40351138 -0.8616509 -0.7299069
-0.4036116 -0.864606 -0.72790295
-0.43151727 -0.923166 -0.77274364
-0.45954263 -0.9823134 -0.81751144
-0.48304218 -1.032702 -0.85442406
-0.48316038 -1.036187 -0.85206074
-0.4970678 -1.0675919 -0.872657
-0.50781715 -1.0927545 -0.88787484
-0.5079409 -1.096403 -0.88540065
-0.5377065 -1.2034682 -0.8980482
-0.5378366 -1.2073045 -0.89544666
-0.5383587 -1.2119758 -0.89346504
-0.53786385 -1.2144794 -0.8898761
-0.5379939 -1.2183143 -0.88727564
-0.53683794 -1.2193854 -0.8826596
-0.534373 -1.2176199 -0.8760113
-0.5345022 -1.2214289 -0.87342834
-0.5333983 -1.222565 -0.8689309
-0.53229994 -1.2236984 -0.8644541
-0.5304063 -1.2230829 -0.8587623
-0.5305345 -1.226862 -0.8561996
-0.5274869 -1.2236795 -0.8487681
-0.5258715 -1.2236062 -0.8435562
-0.5259986 -1.2273526 -0.8410157
-0.5250767 -1.2287803 -0.83688235
-0.5244789 -1.2309135 -0.8332497
-0.52460563 -1.2346481 -0.8307171
-0.52350324 -1.235643 -0.82633615
-0.5198227 -1.2308606 -0.81810206
-0.517179 -1.2283552 -0.8114542
-0.5173039 -1.2320378 -0.8089568
-0.51186824 -1.2231898 -0.79820424
-0.5055345 -1.2122443 -0.7861765
-0.5056568 -1.2158471 -0.7837333
-0.50000834 -1.20634 -0.7728065
-0.4938114 -1.1955125 -0.76113194
-0.4939309 -1.1990352 -0.7587431
-0.48759308 -1.1877692 -0.7469548
-0.48313385 -1.180738 -0.73795414
-0.47940433 -1.1753311 -0.730053
-0.4795205 -1.1787553 -0.72773093
-0.47582334 -1.1733527 -0.7199316
-0.47504514 -1.174678 -0.7163477
-0.47516024 -1.1780709 -0.71404684
-0.47358012 -1.1775092 -0.7093356
-0.47268438 -1.1785274 -0.7056104
-0.47279888 -1.1819024 -0.70332164
-0.47250545 -1.1843183 -0.70045877
-0.46983403 -1.1811235 -0.69426423
-0.46693733 -1.1773624 -0.6877816
-0.4670504 -1.1806965 -0.68552065
-0.46048155 -1.168157 -0.6739832
-0.4528107 -1.1529115 -0.6609851
-0.45292056 -1.1561501 -0.658789
-0.44777396 -1.1468055 -0.6493709
-0.44261968 -1.1373789 -0.63999265
-0.44272718 -1.1405479 -0.6378437
-0.43995905 -1.1367807 -0.6317849
-0.4387655 -1.1367863 -0.62788707
-0.43770885 -1.1371081 -0.6241865
-0.43781516 -1.1402419 -0.62206143
-0.43749228 -1.1423299 -0.6193609
-0.4368788 -1.1437031 -0.61627656
-0.43698484 -1.1468294 -0.6141566
-0.43671978 -1.1490446 -0.61154443
-0.43686467 -1.1522641 -0.6094776
-0.43697065 -1.1553881 -0.6073591
-0.43670294 -1.1575882 -0.60475045
-0.43658382 -1.1601521 -0.60233957
-0.43680933 -1.1635696 -0.60037965
-0.4369152 -1.1666903 -0.59826326
-0.43751717 -1.1710496 -0.59678835
-0.43764484 -1.1742281 -0.5946978
-0.43775082 -1.1773523 -0.5925791
-0.4371262 -1.1786393 -0.58952636
-0.43647182 -1.1798427 -0.58644253
-0.43657747 -1.1829572 -0.5843305
-0.4392789 -1.1926457 -0.5855007
-0.43882295 -1.19435 -0.5826689
-0.4387745 -1.1970847 -0.5803539
-0.43888056 -1.2002113 -0.5782336
-0.4508515 -1.2336727 -0.5908905
-0.44381872 -1.2185761 -0.5798566
-0.44392583 -1.2217339 -0.5777152
-0.7981084 -0.46975833 -2.303665
-0.7925405 -0.47221398 -2.2837207
-0.7855515 -0.47374764 -2.259906
-0.7857464 -0.47949365 -2.2560096
-0.7754817 -0.47889185 -2.2232819
-0.7681735 -0.47996157 -2.1988003
-0.7683642 -0.4855823 -2.1949887
-0.7603946 -0.48608342 -2.168816
-0.7507073 -0.4853838 -2.1380332
-0.7508937 -0.49087876 -2.134307
-0.73937076 -0.4887879 -2.0986826
-0.7312077 -0.48873693 -2.072319
-0.7195842 -0.48628327 -2.0366552
-0.71976304 -0.49155614 -2.0330796
-0.7071666 -0.4882047 -1.9949762
-0.6922111 -0.4830708 -1.9506466
-0.69238335 -0.4881493 -1.9472027
-0.6821759 -0.48600897 -1.9158723
-0.6726805 -0.48422778 -1.8865623
-0.67284805 -0.48916692 -1.883213
-0.6642905 -0.4878601 -1.8565625
-0.6574718 -0.48769158 -1.8346398
-0.6541828 -0.49000296 -1.8221804
-0.6543458 -0.49480888 -1.8189213
-0.6506485 -0.4967467 -1.8054355
-0.6492363 -0.5003455 -1.7980325
-0.649398 -0.50511366 -1.7947991
-0.6495555 -0.5098785 -1.7915542
-0.67749923 -0.53603935 -1.8613287
-0.6776675 -0.5410003 -1.8579645
-0.7165464 -0.57629234 -1.9559156
-0.7366789 -0.597292 -2.0044904
-0.7550982 -0.6171956 -2.0483878
-0.7552846 -0.6226899 -2.0446618
-0.75005835 -0.62379724 -2.0268848
-0.7458789 -0.62568694 -2.0118773
-0.746063 -0.6311135 -2.0081973
-0.7424905 -0.63341945 -1.9948252
-0.7393054 -0.6359992 -1.9824903
-0.73948777 -0.64137644 -1.9788438
-0.7384832 -0.64574367 -1.9721539
-0.7360384 -0.6488598 -1.9617908
-0.73253244 -0.65102345 -1.9487461
-0.7327131 -0.6563488 -1.9451348
-0.72883177 -0.65810865 -1.931194
-0.7272413 -0.66184026 -1.9231095
-0.72742057 -0.66712534 -1.9195256
-0.72345036 -0.6686846 -1.9054551
-0.719116 -0.6698589 -1.8905101
-0.7192932 -0.675084 -1.8869668
-0.7174989 -0.6784994 -1.8784721
-0.71444213 -0.6807211 -1.8668346
-0.7118367 -0.68331987 -1.8563597
-0.71201205 -0.6884899 -1.8528538
-0.7088822 -0.6905376 -1.841117
-0.7059273 -0.6927075 -1.8298494
-0.7061012 -0.6978331 -1.8263735
-0.6952326 -0.6923062 -1.7955734
-0.68854636 -0.69069445 -1.7752159
-0.688716 -0.6956968 -1.7718236
-0.68137074 -0.69329906 -1.7499539
-0.65905863 -0.675964 -1.6914419
-0.41478196 -0.4458239 -1.0826325
-0.4148875 -0.44893444 -1.0805233
-0.3525407 -0.3876426 -0.9271484
-0.3376024 -0.3747253 -0.88900656
-0.33768985 -0.377303 -0.8872585
-0.33017737 -0.37189227 -0.867222
-0.32596573 -0.36987224 -0.8551907
-0.3235676 -0.36972556 -0.8475493
-0.32365167 -0.37220442 -0.8458683
-0.32082465 -0.37154627 -0.8372427
-0.3178456 -0.37068483 -0.8282856
-0.31792828 -0.37312266 -0.8266324
-0.31492254 -0.3721711 -0.81765974
-0.31207493 -0.37135345 -0.8090933
-0.31215623 -0.37375 -0.80746806
-0.3093359 -0.37290472 -0.7990114
-0.3063475 -0.37183234 -0.7901902
-0.30338597 -0.37074992 -0.7814639
-0.30346516 -0.37308472 -0.7798806
-0.30061466 -0.37206903 -0.77146053
-0.29794782 -0.37122613 -0.76349866
-0.29802573 -0.37352204 -0.7619417
-0.29502857 -0.37224066 -0.75325686
-0.2918119 -0.37066212 -0.74409616
-0.2889803 -0.3694932 -0.735858
-0.28905603 -0.37172562 -0.7343442
-0.2862472 -0.37052658 -0.72620356
-0.28322282 -0.36903182 -0.71759874
-0.28329715 -0.37122333 -0.7161126
-0.2804639 -0.36989874 -0.70799184
-0.27782142 -0.36876798 -0.7003355
-0.27789447 -0.37092105 -0.6988754
-0.27524814 -0.36973223 -0.6912524
-0.27262443 -0.36853576 -0.6837085
-0.27014622 -0.36748472 -0.67652065
-0.27021742 -0.3695834 -0.67509747
-0.26757425 -0.36827537 -0.6675785
-0.2655008 -0.3676506 -0.6613641
-0.26557088 -0.36971617 -0.65996337
-0.26273078 -0.3680722 -0.65207213
-0.2602496 -0.36685014 -0.64500946
-0.2603184 -0.36887848 -0.64363396
-0.258026 -0.3678508 -0.63702863
-0.25595137 -0.36707577 -0.63092893
-0.2533288 -0.36555642 -0.62364304
-0.25339594 -0.36753577 -0.62230074
-0.25126922 -0.3666186 -0.6161444
-0.24902551 -0.36551768 -0.6097543
-0.24909161 -0.36746633 -0.6084328
-0.24682906 -0.36629522 -0.6020373
-0.24472293 -0.36530432 -0.59600544
-0.24478799 -0.36722237 -0.59470475
-0.2425446 -0.3660028 -0.58840936
-0.24046895 -0.36498222 -0.5824995
-0.23822184 -0.36369875 -0.5762424
-0.23828535 -0.36557087 -0.57497287
-0.2361782 -0.36443627 -0.56905097
-0.23428954 -0.36357772 -0.5636185
-0.2343521 -0.36542183 -0.5623679
-0.23226771 -0.36425048 -0.5565487
-0.23038153 -0.36333102 -0.55117214
-0.23044313 -0.36514735 -0.5499404
-0.22852698 -0.3641475 -0.5445303
-0.22663504 -0.36315674 -0.53919125
-0.22493693 -0.3624193 -0.5342797
-0.22499722 -0.36419708 -0.53307414
-0.22310607 -0.36314577 -0.5277854
-0.22120693 -0.36205763 -0.5224997
-0.22126633 -0.3638089 -0.5213121
-0.21900661 -0.36215326 -0.5153073
-0.21688043 -0.36066487 -0.5096027
-0.2169388 -0.36238566 -0.50843585
-0.21484305 -0.36090034 -0.5028271
-0.2122144 -0.35859084 -0.4961442
-0.20990928 -0.3567325 -0.4901522
-0.20996599 -0.35840455 -0.48901835
-0.20805958 -0.35710445 -0.48387632
-0.2075225 -0.357861 -0.48154294
-0.20757861 -0.3595158 -0.4804208
-0.20681417 -0.35991243 -0.47763568
-0.20612009 -0.36040682 -0.4750011
-0.20617586 -0.36205098 -0.47388613
-0.20643036 -0.36400363 -0.4731709
-0.20780478 -0.36770457 -0.47470078
-0.20927238 -0.37156823 -0.4764038
-0.20932883 -0.37323216 -0.47527546
-0.20972517 -0.3754324 -0.474824
-0.2114648 -0.3797653 -0.47703728
-0.2115217 -0.38144284 -0.4758997
-0.21264419 -0.38482225 -0.47686794
-0.21371235 -0.38812813 -0.47771838
-0.21376972 -0.38981965 -0.47657132
-0.21499366 -0.39339662 -0.47771204
-0.21636905 -0.39723417 -0.4791373
-0.21683416 -0.3996057 -0.47877336
-0.2168922 -0.40131673 -0.47761306
-0.21785711 -0.40451655 -0.4782131
-0.21610484 -0.4032499 -0.4735433
-0.21616267 -0.40495482 -0.4723871
-0.21484005 -0.40436724 -0.46857202
-0.21524382 -0.40664005 -0.4680873
-0.21530142 -0.40833804 -0.4669358
-0.2147454 -0.4090053 -0.46461165
-0.21508537 -0.41117552 -0.46400154
-0.21509086 -0.41278324 -0.46275267
-0.21514837 -0.41447866 -0.46160296
-0.21539879 -0.41650295 -0.46081808
-0.21593696 -0.4190222 -0.460574
-0.21599463 -0.42072216 -0.45942122
-0.21676993 -0.42365932 -0.45961496
-0.21708472 -0.42580873 -0.45893976
-0.21765818 -0.42841056 -0.45874473
-0.21771617 -0.43012044 -0.4575852
-0.21911259 -0.43417168 -0.4589102
-0.22079383 -0.43873984 -0.4607493
-0.22085251 -0.4404696 -0.4595763
-0.2239191 -0.4475179 -0.46394223
-0.22617635 -0.45316806 -0.46679202
-0.2262362 -0.45493266 -0.4655954
-0.22924031 -0.4619589 -0.46977663
-0.23340966 -0.47111183 -0.47605145
-0.23711126 -0.47947466 -0.48143578
-0.23717354 -0.48131087 -0.48019058
-0.24200006 -0.49178085 -0.4875534
-0.2482394 -0.50487983 -0.49741477
-0.24830416 -0.5067892 -0.49611995
-0.25944123 -0.52897227 -0.51466644
-0.2698494 -0.5499549 -0.5318009
-0.26991904 -0.5520074 -0.53040904
-0.27123937 -0.5563734 -0.53124
-0.28117475 -0.5767454 -0.5473264
-0.283557 -0.58317435 -0.5499668
-0.28362966 -0.5853164 -0.5485142
-0.2913284 -0.6017563 -0.5604641
-0.2966825 -0.6138809 -0.56822973
-0.2967581 -0.6161091 -0.5667187
-0.30467078 -0.6331775 -0.57886535
-0.31068462 -0.6467362 -0.5876351
-0.3107633 -0.64905626 -0.58606184
-0.31604895 -0.6613335 -0.59348583
-0.3245091 -0.67976594 -0.60632855
-0.33409157 -0.7004629 -0.6210174
-0.3341755 -0.7029368 -0.6193397
-0.34732008 -0.73071176 -0.6399741
-0.35581312 -0.74960923 -0.65255696
-0.3559019 -0.75222605 -0.65078235
-0.37229073 -0.78672314 -0.6766142
-0.390589 -0.8251691 -0.7055113
-0.39068556 -0.8280155 -0.703581
-0.43140832 -0.91107655 -0.7698608
-0.45457903 -0.95987713 -0.8063603
-0.48884144 -1.0310012 -0.86114854
-0.48896006 -1.0344981 -0.8587772
-0.519681 -1.0991765 -0.9071885
-0.5419565 -1.2080185 -0.8934883
-0.5420865 -1.2118511 -0.8908893
-0.5409404 -1.212975 -0.8862967
-0.54047054 -1.2155228 -0.8827695
-0.5406001 -1.219343 -0.88017887
-0.5396526 -1.2208569 -0.8759212
-0.53840107 -1.2217052 -0.87120473
-0.53853005 -1.2255092 -0.86862516
-0.53722733 -1.2262213 -0.86385024
-0.53531104 -1.2255875 -0.8581513
-0.5334401 -1.2250272 -0.85254127
-0.5335679 -1.2287949 -0.8499862
-0.5317847 -1.2283895 -0.84453785
-0.5289857 -1.2257361 -0.8375747
-0.5291124 -1.2294719 -0.83504134
-0.5296874 -1.2341949 -0.83318007
-0.5287201 -1.2355175 -0.82900923
-0.5288467 -1.2392492 -0.82647866
-0.52542967 -1.2351128 -0.81868523
-0.52251935 -1.2320609 -0.8116758
-0.5171253 -1.2234273 -0.80103064
-0.51724917 -1.2270793 -0.7985541
-0.5107285 -1.2158157 -0.78633654
-0.50456685 -1.2052797 -0.7747074
-0.50468785 -1.2088464 -0.7722886
-0.49777544 -1.1964967 -0.7596598
-0.49273217 -1.188303 -0.7498027
-0.49285048 -1.1917895 -0.7474384
-0.48836374 -1.1847712 -0.7384553
-0.48256764 -1.174702 -0.7276404
-0.4796518 -1.1711668 -0.7209944
-0.47976708 -1.1745641 -0.71869045
-0.47763464 -1.1727798 -0.7131989
-0.4742236 -1.1680127 -0.7059215
-0.47433752 -1.1713722 -0.7036433
-0.47489306 -1.1757578 -0.701985
-0.47366238 -1.1759872 -0.69782317
-0.47204578 -1.1752994 -0.6931364
-0.47215915 -1.1786418 -0.6908698
-0.46986285 -1.1763266 -0.6852662
-0.4628532 -1.1628882 -0.67318064
-0.46296442 -1.166168 -0.6709565
-0.4556971 -1.1519911 -0.6586192
-0.45033234 -1.1422379 -0.64895076
-0.45044076 -1.1454334 -0.64678377
-0.4443089 -1.1337525 -0.6361527
-0.44085938 -1.1284074 -0.62920636
-0.43885097 -1.126472 -0.6242347
-0.43895674 -1.1295896 -0.6221206
-0.4382783 -1.1308187 -0.6189578
-0.4381819 -1.1334436 -0.616578
-0.43828744 -1.1365546 -0.61446834
-0.43804514 -1.138822 -0.6118984
-0.4378175 -1.1411207 -0.60935104
-0.4379229 -1.1442271 -0.60724443
-0.4376239 -1.1463454 -0.6046083
-0.43732783 -1.1484662 -0.60198
-0.43686843 -1.1501808 -0.5991431
-0.4369735 -1.1532785 -0.59704244
-0.43749967 -1.1574153 -0.5954851
-0.43773985 -1.1608496 -0.5935562
-0.43784505 -1.1639509 -0.59145314
-0.43826059 -1.1678237 -0.589746
-0.43755528 -1.1689072 -0.58661115
-0.43766037 -1.1720052 -0.58451027
-0.4367679 -1.1726054 -0.58115053
-0.43478668 -1.1704614 -0.5764315
-0.4375102 -1.1801282 -0.5776247
-0.4376152 -1.1832232 -0.5755259
-0.4327129 -1.1736616 -0.56720245
-0.43772352 -1.1891558 -0.5712025
-0.43782848 -1.1922501 -0.56910414
-0.43341494 -1.1838424 -0.5614522
-0.8050539 -0.46685636 -2.3060203
-0.8052519 -0.47269285 -2.3020623
-0.79963475 -0.47512817 -2.2821293
-0.7925843 -0.47663668 -2.2583282
-0.78223276 -0.47607112 -2.2255712
-0.78242517 -0.48174417 -2.221724
-0.7750529 -0.48278755 -2.197257
-0.76701564 -0.48331705 -2.1710613
-0.76720434 -0.48888084 -2.1672883
-0.75743276 -0.48814654 -2.1365244
-0.7458128 -0.48609626 -2.1008673
-0.7459964 -0.49150956 -2.0971963
-0.7377621 -0.4914294 -2.0708487
-0.72603786 -0.48893437 -2.0352075
-0.7133356 -0.48562708 -1.9970682
-0.71351147 -0.49081102 -1.9935528
-0.698427 -0.4856242 -1.9492521
-0.6881336 -0.48351976 -1.9178926
-0.6883034 -0.48852608 -1.9144976
-0.6787257 -0.48671108 -1.8852062
-0.6700959 -0.48543444 -1.8585312
-0.67026144 -0.4903129 -1.855223
-0.66338325 -0.49011993 -1.8333136
-0.66006494 -0.49241927 -1.8208607
-0.6563357 -0.49437043 -1.8073641
-0.65649784 -0.49914953 -1.8041233
-0.6550723 -0.5027428 -1.7967232
-0.6552297 -0.50750774 -1.7934784
-0.6553914 -0.5122758 -1.7902449
-0.68357116 -0.53853357 -1.8599665
-0.7227696 -0.57369214 -1.9580259
-0.72294706 -0.5789216 -1.9544797
-0.74324894 -0.5999909 -2.0030165
-0.76182306 -0.61995804 -2.046879
-0.7565521 -0.621084 -2.029087
-0.75673723 -0.62654084 -2.0253866
-0.7525207 -0.62841535 -2.0103872
-0.7489173 -0.63073426 -1.9970045
-0.7491005 -0.6361348 -1.9933423
-0.74588686 -0.6387028 -1.9810138
-0.74487245 -0.64307415 -1.9743205
-0.742406 -0.6461992 -1.9639502
-0.7425875 -0.6515501 -1.9603215
-0.7390503 -0.65370095 -1.9472839
-0.73513556 -0.65547484 -1.9333316
-0.73531526 -0.6607721 -1.9297394
-0.7337098 -0.66449744 -1.9216584
-0.7297056 -0.6660711 -1.9075763
-0.7298839 -0.6713274 -1.9040118
-0.72551125 -0.672486 -1.8890754
-0.72370076 -0.67590815 -1.8805753
-0.72061735 -0.67814094 -1.8689287
-0.72079337 -0.6833302 -1.8654097
-0.71816456 -0.6859193 -1.8549402
-0.7150076 -0.6879783 -1.8431941
-0.7151822 -0.69312555 -1.8397036
-0.71220076 -0.69528455 -1.828442
-0.70124173 -0.6897955 -1.797611
-0.70141304 -0.694845 -1.7941868
-0.6946688 -0.6932095 -1.7738423
-0.68726194 -0.6908376 -1.7519517
-0.66476566 -0.6735796 -1.6933771
-0.6649284 -0.67837524 -1.690125
-0.41858903 -0.44738784 -1.0817784
-0.35573116 -0.38630956 -0.9282303
-0.3558221 -0.38899058 -0.9264122
-0.3407573 -0.37602133 -0.88829875
-0.33318272 -0.3706366 -0.86824113
-0.32893592 -0.36863127 -0.8561979
-0.3290206 -0.3711272 -0.8545053
-0.32660156 -0.37097192 -0.84686863
-0.3237508 -0.3703237 -0.83823496
-0.3238342 -0.37278256 -0.8365675
-0.3208294 -0.37191054 -0.82761616
-0.31779844 -0.37096953 -0.8186349
-0.3178804 -0.37338617 -0.81699616
-0.31500822 -0.37255841 -0.8084352
-0.31216416 -0.37172303 -0.79997045
-0.3091508 -0.3706611 -0.79114085
-0.3092307 -0.37301674 -0.7895434
-0.30624366 -0.37192383 -0.7808228
-0.30336922 -0.37091812 -0.77239466
-0.30344775 -0.37323284 -0.7708249
-0.3007579 -0.3723805 -0.7628682
-0.29773575 -0.37110958 -0.7541748
-0.2978129 -0.37338445 -0.7526322
-0.2945687 -0.37179455 -0.7434777
-0.29171267 -0.37061563 -0.73524505
-0.2888804 -0.36942637 -0.7270965
-0.28895545 -0.3716391 -0.72559595
-0.28590512 -0.3701337 -0.71699697
-0.2830482 -0.36881894 -0.7088682
-0.28312188 -0.3709906 -0.70739555
-0.2804567 -0.36985052 -0.6997443
-0.27778825 -0.3686709 -0.69211376
-0.27786067 -0.3708054 -0.69066626
-0.27521443 -0.3695997 -0.6831274
-0.27271494 -0.3685399 -0.6759444
-0.27004972 -0.36724105 -0.668418
-0.2701203 -0.36932126 -0.6670073
-0.26802894 -0.36868915 -0.66079694
-0.26516524 -0.36705503 -0.65289766
-0.26523462 -0.36910078 -0.6515104
-0.26273218 -0.36786997 -0.6444525
-0.2604206 -0.3668503 -0.6378406
-0.26048887 -0.36886254 -0.6364761
-0.25839642 -0.36808017 -0.6303804
-0.25575137 -0.3665516 -0.6230995
-0.2536069 -0.3656419 -0.6169371
-0.25367352 -0.36760628 -0.615605
-0.25141054 -0.36649743 -0.60921925
-0.2491292 -0.36533418 -0.6028173
-0.24919477 -0.367267 -0.60150653
-0.24707052 -0.3662687 -0.5954788
-0.24480851 -0.3650569 -0.5891771
-0.24487303 -0.36695927 -0.587887
-0.24277952 -0.3659314 -0.5819811
-0.24051322 -0.36464003 -0.57572836
-0.2383885 -0.36351278 -0.5698005
-0.2384515 -0.36537015 -0.568541
-0.23654662 -0.3645049 -0.56311214
-0.23444492 -0.36334082 -0.55728704
-0.234507 -0.36517036 -0.55604637
-0.23260461 -0.36424425 -0.5506734
