ply
format ascii 1.0
element vertex 1323
property float x
property float y
property float z
end_header
-0.047588438 -0.2134603 -0.22702183
-0.047525544 -0.21475108 -0.2271825
-0.047518898 -0.21563432 -0.2267278
-0.047456183 -0.21692985 -0.22688262
-0.047393195 -0.21823147 -0.22703795
-0.047386516 -0.219119 -0.22658104
-0.047323734 -0.22042519 -0.22673027
-0.047261167 -0.22173372 -0.22687459
-0.047254458 -0.22262552 -0.22641549
-0.04719159 -0.2239424 -0.22655925
-0.047128435 -0.22526546 -0.22670352
-0.047028303 -0.22687517 -0.22724056
-0.047021534 -0.22777481 -0.22677742
-0.046958543 -0.2291081 -0.22691278
-0.046877023 -0.23058896 -0.22724235
-0.04687022 -0.23149358 -0.22677664
-0.046788383 -0.2329849 -0.2271045
-0.046706513 -0.23448193 -0.22742935
-0.04664337 -0.23583655 -0.22755362
-0.046636503 -0.23674898 -0.22708389
-0.046573304 -0.23811005 -0.2272049
-0.04651033 -0.23947328 -0.22732095
-0.046503432 -0.24038999 -0.22684902
-0.046458695 -0.24161212 -0.22677137
-0.046395663 -0.24298522 -0.22688219
-0.046388738 -0.24390548 -0.22640842
-0.046325404 -0.24528705 -0.22651859
-0.046280853 -0.24651834 -0.2264322
-0.046217166 -0.24791017 -0.22654137
-0.046210196 -0.24883617 -0.22606465
-0.046109684 -0.25054035 -0.22654787
-0.046045903 -0.25194436 -0.22665082
-0.046038892 -0.25287604 -0.22617118
-0.045975365 -0.2542839 -0.22626774
-0.045892958 -0.2558555 -0.22655377
-0.04588591 -0.2567922 -0.22607155
-0.04580309 -0.25837535 -0.22635676
-0.045720585 -0.25996113 -0.22663538
-0.045638483 -0.2615488 -0.22690652
-0.04563137 -0.262494 -0.22641993
-0.045529958 -0.2642571 -0.22687995
-0.045522377 -0.26520976 -0.22639595
-0.04551524 -0.26615852 -0.2259075
-0.045526464 -0.26694608 -0.2252359
-0.04551933 -0.2678942 -0.22474782
-0.045512196 -0.2688423 -0.22425973
-0.045467686 -0.2701225 -0.22414187
-0.045593172 -0.269889 -0.22234225
-0.04573704 -0.2694816 -0.22036734
-0.045729976 -0.27042043 -0.21988402
-0.045912053 -0.2696523 -0.21754406
-0.046094477 -0.26886776 -0.21520908
-0.04608752 -0.26979235 -0.2147331
-0.04625116 -0.26915944 -0.21259384
-0.046433605 -0.26834217 -0.21027921
-0.04642675 -0.26925322 -0.20981018
-0.046590634 -0.2685875 -0.20768782
-0.046735633 -0.26808494 -0.20575549
-0.04686173 -0.26774758 -0.20401199
-0.046855006 -0.26864153 -0.20355178
-0.047000203 -0.2681112 -0.20163378
-0.047145348 -0.26757082 -0.19972305
-0.047138706 -0.26845336 -0.19926871
-0.047284283 -0.26789308 -0.19736393
-0.04742963 -0.26732424 -0.1954679
-0.047423076 -0.2681954 -0.19501944
-0.04756855 -0.2676095 -0.19313227
-0.047714114 -0.26701227 -0.19125094
-0.047841053 -0.2665842 -0.18955174
-0.047834624 -0.26743895 -0.1891117
-0.04798039 -0.26681393 -0.18724471
-0.048126403 -0.266176 -0.18538214
-0.04812006 -0.26701933 -0.18494797
-0.048247132 -0.26655164 -0.18327168
-0.048374277 -0.26607403 -0.18160062
-0.048368007 -0.2669074 -0.1811716
-0.04849525 -0.26641488 -0.17950827
-0.04862238 -0.26591426 -0.17785184
-0.048731074 -0.26558888 -0.17637092
-0.048724912 -0.266408 -0.17594923
-0.04883332 -0.26607352 -0.1744784
-0.048941806 -0.26573044 -0.17301188
-0.048935704 -0.26654097 -0.1725946
-0.049044285 -0.26618502 -0.17113468
-0.049171835 -0.2656276 -0.16950771
-0.049165808 -0.26642892 -0.1690952
-0.04925586 -0.26624298 -0.16781543
-0.049345747 -0.26605204 -0.1665412
-0.049454622 -0.26565826 -0.1651007
-0.049448684 -0.26644814 -0.16469407
-0.04955765 -0.26604155 -0.16326019
-0.04964753 -0.26582643 -0.16200149
-0.049641643 -0.26660845 -0.16159889
-0.049731605 -0.26638266 -0.16034569
-0.049822114 -0.26614448 -0.15909174
-0.049816288 -0.26691934 -0.15869282
-0.04990638 -0.26667568 -0.15744877
-0.049996532 -0.26642486 -0.15620838
-0.05006755 -0.26637197 -0.1551399
-0.050061792 -0.2671369 -0.15474612
-0.050190486 -0.2664559 -0.15317947
-0.050280843 -0.26617926 -0.15195218
-0.05027515 -0.26693562 -0.1515628
-0.050346367 -0.2668571 -0.15050755
-0.05045606 -0.26635414 -0.14912313
-0.05045042 -0.26710337 -0.14873743
-0.050560474 -0.2665848 -0.14735746
-0.05067008 -0.26606315 -0.14598614
-0.05076076 -0.2657425 -0.14478174
-0.05075521 -0.2664796 -0.14440228
-0.050846193 -0.26614583 -0.1432015
-0.050936896 -0.2658085 -0.14200716
-0.050931405 -0.26653847 -0.14163136
-0.05103182 -0.26608258 -0.14036116
-0.051093623 -0.26605335 -0.13942087
-0.05116544 -0.26590657 -0.13839918
-0.051160015 -0.26662728 -0.13802816
-0.05123192 -0.26647177 -0.13701074
-0.051322907 -0.26609418 -0.13583755
-0.051317528 -0.26680848 -0.13546982
-0.05137975 -0.26674995 -0.13454136
-0.051461328 -0.26646492 -0.13345565
-0.051455993 -0.26717353 -0.13309087
-0.051527772 -0.26699272 -0.13209136
-0.051618837 -0.26658365 -0.1309368
-0.05169046 -0.26639363 -0.1299455
-0.0516852 -0.26709297 -0.12958547
-0.05177644 -0.26666623 -0.12843925
-0.051839076 -0.26656786 -0.1275296
-0.05183386 -0.26726115 -0.12717268
-0.051876765 -0.26738808 -0.12642679
-0.051938955 -0.26728413 -0.12552747
-0.051933777 -0.26797318 -0.12517273
-0.05201337 -0.26765585 -0.124138065
-0.05209296 -0.26733306 -0.12310714
-0.05216466 -0.26709864 -0.122142665
-0.05215954 -0.26777864 -0.1217926
-0.052213896 -0.26774484 -0.120970674
-0.052293688 -0.26740074 -0.11994991
-0.052288614 -0.26807544 -0.11960257
-0.052303027 -0.26851422 -0.11910179
-0.052357633 -0.26846385 -0.118286334
-0.05235258 -0.26913562 -0.117940485
-0.052446112 -0.26860425 -0.116824806
-0.05260494 -0.26726732 -0.11520484
-0.052668903 -0.26708356 -0.11432853
-0.052663933 -0.2677432 -0.11398894
-0.052935977 -0.2649855 -0.1115097
-0.053012535 -0.26462752 -0.11054795
-0.05300767 -0.26527402 -0.11021512
-0.053220935 -0.2632077 -0.10821108
0.005482007 -0.3137548 -1.0419781
0.005505603 -0.31689078 -1.0403637
0.0053929575 -0.31953725 -1.0368463
0.0054136864 -0.3226574 -1.0351954
0.0054372377 -0.32578766 -1.0335839
0.004893288 -0.32681075 -1.0240896
0.004278973 -0.32752448 -1.0136486
0.003361702 -0.32703814 -0.99904746
0.0033845901 -0.3300802 -0.99748135
0.0029315557 -0.3312792 -0.989353
0.0024378449 -0.33228105 -0.9806889
0.0024604276 -0.33528236 -0.97914386
0.002433485 -0.33808595 -0.97691965
0.002374959 -0.34075832 -0.97426564
0.0023975007 -0.3437543 -0.9727233
0.0025098727 -0.34711957 -0.9724059
0.0025255862 -0.3500908 -0.97076833
0.002501347 -0.352894 -0.96858835
0.0025239 -0.35589144 -0.96704525
0.002405601 -0.35828745 -0.96359557
0.0019770078 -0.35933495 -0.95596105
0.0019993782 -0.36230817 -0.9544304
0.0014662571 -0.36284336 -0.945423
0.0011565727 -0.3643241 -0.9394455
0.0011786711 -0.36726102 -0.9379335
0.00046321162 -0.3668734 -0.92655
-0.00036348696 -0.36592174 -0.9137176
-0.00042423248 -0.36841613 -0.91114086
-0.00040264815 -0.37128484 -0.90966403
-0.0010255515 -0.37114692 -0.899626
-0.004261073 -0.35866684 -0.8549811
-0.0042406847 -0.3613764 -0.8535862
-0.040201113 -0.19197883 -0.376944
-0.041868035 -0.18513717 -0.35420573
-0.041859202 -0.18631113 -0.35360137
-0.042341314 -0.18507893 -0.3465493
-0.04268211 -0.18450631 -0.34137407
-0.042969707 -0.18417124 -0.33691248
-0.04296122 -0.18529892 -0.33633193
-0.043336414 -0.18448599 -0.33075076
-0.043538626 -0.18452471 -0.32743898
-0.043530323 -0.18562822 -0.3268709
-0.04374962 -0.18555383 -0.3233534
-0.043934543 -0.1856409 -0.32029185
-0.04392637 -0.18672729 -0.31973258
-0.044181406 -0.18642065 -0.315782
-0.04436677 -0.18646498 -0.31274056
-0.044552036 -0.18649474 -0.3097099
-0.04454406 -0.18755472 -0.30916423
-0.044746913 -0.1874661 -0.3059231
-0.044967506 -0.18726374 -0.30246612
-0.04495966 -0.18830591 -0.3019296
-0.045163065 -0.18817256 -0.29870808
-0.045384057 -0.18792425 -0.29527384
-0.045376346 -0.1889486 -0.2947465
-0.045597382 -0.18867347 -0.29132876
-0.045836367 -0.1882779 -0.2876959
-0.04604028 -0.1880652 -0.28451663
-0.04603278 -0.18906175 -0.2840036
-0.046272136 -0.18861763 -0.28039557
-0.046511367 -0.18815517 -0.2768013
-0.04650402 -0.18913177 -0.27629852
-0.04677846 -0.18843119 -0.27228367
-0.047018267 -0.18791631 -0.26871336
-0.047011077 -0.18887153 -0.26822162
-0.04723346 -0.18843383 -0.2648855
-0.04749076 -0.18776518 -0.26112875
-0.047730796 -0.18718235 -0.25759816
-0.047723837 -0.18810764 -0.2571218
-0.047928978 -0.18771331 -0.2540382
-0.048116956 -0.18741019 -0.25117558
-0.048110116 -0.18831907 -0.2507077
-0.048315156 -0.18788534 -0.24765085
-0.04850303 -0.18754481 -0.24481373
-0.048496317 -0.18843734 -0.24435425
-0.048667226 -0.18818392 -0.24173751
-0.048820026 -0.18803443 -0.23934893
-0.048937447 -0.18810365 -0.23739599
-0.048930876 -0.18897761 -0.23694605
-0.049083445 -0.18880041 -0.23457862
-0.049166072 -0.18907577 -0.23306006
-0.049159568 -0.18993977 -0.23261526
-0.049224086 -0.19032663 -0.23132016
-0.049270853 -0.19082794 -0.23024042
-0.04929993 -0.19144543 -0.22937433
-0.049293477 -0.192303 -0.22893284
-0.049234223 -0.19352342 -0.22911859
-0.049245536 -0.19426025 -0.22846521
-0.049239077 -0.19511925 -0.228023
-0.049178742 -0.19635452 -0.22821675
-0.049190074 -0.19709052 -0.2275635
-0.0491836 -0.19795096 -0.22712055
-0.049123727 -0.19919054 -0.22730424
-0.049081616 -0.20030732 -0.2272772
-0.049021676 -0.20155473 -0.2274568
-0.049015157 -0.20242085 -0.2270109
-0.048937567 -0.20380235 -0.22739208
-0.048895355 -0.2049313 -0.22735891
-0.048888806 -0.20580168 -0.22691083
-0.04884636 -0.20693643 -0.22687785
-0.048786268 -0.20820452 -0.22704683
-0.048779696 -0.20907849 -0.2265969
-0.048719548 -0.21035302 -0.22676258
-0.04864151 -0.211766 -0.22713087
-0.048581533 -0.21304803 -0.2272891
-0.048574902 -0.21392912 -0.2268355
-0.048514403 -0.21522105 -0.22699572
-0.048454117 -0.21651557 -0.2271512
-0.04844745 -0.21740095 -0.22669539
-0.048386864 -0.21870372 -0.22685027
-0.048326485 -0.2200089 -0.22700015
-0.048319794 -0.22089857 -0.22654215
-0.048259612 -0.22220823 -0.226686
-0.048199154 -0.22352411 -0.22683042
-0.04813842 -0.2248462 -0.22697534
-0.04813168 -0.22574227 -0.22651404
-0.048035532 -0.22735386 -0.22705033
-0.047974948 -0.22868615 -0.22718632
-0.04796816 -0.22958791 -0.22672209
-0.04788982 -0.23107028 -0.22705105
-0.0478112 -0.23256029 -0.22737977
-0.047804374 -0.23346776 -0.2269126
-0.0477257 -0.2349663 -0.22723685
-0.047664948 -0.23632206 -0.22736067
-0.047604155 -0.23768209 -0.22748235
-0.04759727 -0.2385967 -0.2270115
-0.047536682 -0.23996106 -0.2271271
-0.047493562 -0.2411825 -0.2270499
-0.047486655 -0.24210067 -0.2265772
-0.04742601 -0.2434749 -0.22668758
-0.047365084 -0.24485543 -0.2267984
-0.04735814 -0.24577786 -0.22632353
-0.047315188 -0.24700992 -0.22623685
-0.0472539 -0.2484029 -0.22634555
-0.047157384 -0.25010544 -0.22682983
-0.04715039 -0.25103495 -0.2263513
-0.047089014 -0.2524401 -0.22645381
-0.04702789 -0.25384697 -0.226551
-0.047020864 -0.2547808 -0.22607026
-0.046941653 -0.2563539 -0.22635569
-0.046862066 -0.25793573 -0.22664176
-0.046854995 -0.25887525 -0.22615808
-0.04677568 -0.26046258 -0.2264361
-0.046696752 -0.26205173 -0.22670664
-0.046599343 -0.26381317 -0.22716777
-0.046592206 -0.26476195 -0.22667933
-0.04658465 -0.26571462 -0.2261953
-0.046595097 -0.26650244 -0.2255235
-0.04658796 -0.26745057 -0.2250354
-0.04658083 -0.2683987 -0.22454733
-0.046537902 -0.2696782 -0.2244299
-0.046530757 -0.27062774 -0.22394107
-0.046650656 -0.27039158 -0.22214252
-0.046788152 -0.26998115 -0.22016881
-0.04696221 -0.26921636 -0.2178267
-0.046955198 -0.27014807 -0.21734704
-0.04712963 -0.26935974 -0.21501356
-0.047286045 -0.26872978 -0.21287237
-0.047279138 -0.26964796 -0.21239968
-0.047453605 -0.2688269 -0.21008655
-0.04761026 -0.26816422 -0.20796224
-0.04760346 -0.26906887 -0.20749652
-0.047742072 -0.26856324 -0.2055654
-0.047862586 -0.26822326 -0.20382296
-0.048001356 -0.26769558 -0.20190324
-0.047994673 -0.26858383 -0.20144595
-0.04813344 -0.26804042 -0.19953643
-0.048272576 -0.2674828 -0.19762991
-0.048265982 -0.26835963 -0.1971785
-0.048404947 -0.26778778 -0.1952837
-0.048544005 -0.26720455 -0.1933948
-0.048683144 -0.26660997 -0.19151174
-0.048676677 -0.26746973 -0.19106913
-0.04879802 -0.267039 -0.18937099
-0.048937377 -0.26641664 -0.18750226
-0.04893099 -0.2672657 -0.18706517
-0.049070608 -0.26662472 -0.18520379
-0.049192064 -0.26615933 -0.183526
-0.049185753 -0.26699772 -0.18309438
-0.049307313 -0.26651746 -0.1814244
-0.049428936 -0.26602727 -0.17975955
-0.049550455 -0.26552898 -0.1781016
-0.049544264 -0.2663524 -0.17767772
-0.04964815 -0.2660247 -0.17619771
-0.04975174 -0.26569226 -0.17472556
-0.049745608 -0.2665071 -0.17430608
-0.04984931 -0.2661617 -0.17284048
-0.049953062 -0.26580778 -0.17137925
-0.049946997 -0.26661405 -0.17096418
-0.050068967 -0.26605397 -0.16933827
-0.05015498 -0.26586974 -0.16805741
-0.050240844 -0.26568046 -0.16678211
-0.05023487 -0.2664746 -0.16637327
-0.05033896 -0.26607856 -0.16493367
-0.050443098 -0.26567394 -0.16349849
-0.05043719 -0.26645955 -0.16309406
-0.050523084 -0.26624253 -0.16183612
-0.050609022 -0.26601842 -0.16058184
-0.050603166 -0.2667969 -0.16018108
-0.050689667 -0.26655677 -0.15892787
-0.05077575 -0.26631474 -0.15768275
-0.050861888 -0.26606563 -0.15644127
-0.050856113 -0.26683336 -0.15604603
-0.050923936 -0.26677898 -0.15497816
-0.051046997 -0.26610032 -0.15340997
-0.051041275 -0.26686022 -0.15301877
-0.051127646 -0.2665817 -0.15179223
-0.051195644 -0.26650453 -0.15073611
-0.051189974 -0.26725802 -0.15034822
-0.05129489 -0.26675278 -0.1489647
-0.051400095 -0.26623628 -0.14758343
-0.051504903 -0.26571658 -0.1462108
-0.05149933 -0.26645726 -0.14582951
-0.051586017 -0.2661347 -0.14462587
-0.05167296 -0.2658026 -0.143424
-0.051667448 -0.26653612 -0.14304638
-0.051754165 -0.2661969 -0.1418528
-0.05185017 -0.26574284 -0.1405814
-0.05184471 -0.2664689 -0.14020762
-0.051903717 -0.26643836 -0.13926785
-0.051972345 -0.26629007 -0.13824677
-0.052041024 -0.26613587 -0.1372285
-0.052035622 -0.26685375 -0.13685894
-0.052122623 -0.26647425 -0.1356865
-0.05218203 -0.26641688 -0.13475728
-0.052176673 -0.26712868 -0.13439085
-0.052254666 -0.26684198 -0.1333058
-0.052323233 -0.26666248 -0.13230544
-0.05231793 -0.26736823 -0.13194212
-0.052405007 -0.26695728 -0.13078831
-0.052473456 -0.26676574 -0.12979761
-0.052560702 -0.26634064 -0.12865031
-0.052555464 -0.26703647 -0.1282921
-0.052615292 -0.26693675 -0.127383
-0.052656207 -0.26706448 -0.12663656
-0.052651 -0.26775602 -0.12628056
-0.052710418 -0.26765078 -0.12538174
-0.05278651 -0.2673349 -0.124346144
-0.052781347 -0.26802084 -0.12399302
-0.05285744 -0.26769638 -0.12296275
-0.052925974 -0.26746044 -0.12199887
-0.05297787 -0.26742768 -0.12117629
-0.052972768 -0.2681055 -0.12082734
-0.053049073 -0.26775974 -0.119807236
-0.053062674 -0.26819885 -0.11930624
-0.053057607 -0.26887283 -0.11895927
-0.05310976 -0.2688213 -0.11814427
-0.053199224 -0.2682916 -0.11702749
-0.053194195 -0.2689598 -0.11668351
-0.053346295 -0.26761964 -0.11506481
-0.053407427 -0.26743454 -0.11418904
-0.053668026 -0.2646816 -0.11170672
-0.05366314 -0.2653311 -0.11137236
-0.05373636 -0.26497152 -0.110411234
-0.053940624 -0.26290894 -0.10840476
-0.05393582 -0.26354745 -0.10807605
0.0018286152 -0.314896 -1.0392245
0.0017846307 -0.31777275 -1.0366232
0.0018081596 -0.3208997 -1.0350134
0.0018767907 -0.32419944 -1.0340624
0.0013939068 -0.32536677 -1.0250688
0.0014172867 -0.32847384 -1.0234692
0.00083222677 -0.32917333 -1.0130324
-2.5331368e-05 -0.32873225 -0.9986777
-0.0005633034 -0.32950896 -0.98899496
-0.0005405903 -0.3325277 -0.9874409
-0.0009977669 -0.33356732 -0.97896814
-0.0010313727 -0.3363315 -0.97661656
-0.001008831 -0.3393272 -0.97507435
-0.0010819702 -0.34191626 -0.9721604
-0.0010448701 -0.34497046 -0.9708292
-0.0010223545 -0.34796265 -0.96928877
-0.0010147799 -0.3508895 -0.96753544
-0.0010444546 -0.35365066 -0.9652528
-0.0011428448 -0.3561012 -0.9619969
-0.0011203925 -0.35908532 -0.96046066
-0.0014250929 -0.36058426 -0.9542953
-0.0019183531 -0.36119235 -0.9454842
-0.0018961728 -0.36414033 -0.9439666
-0.0022030335 -0.36555368 -0.9378194
-0.0028067506 -0.36554313 -0.9275208
-0.0027848757 -0.3684502 -0.9260242
-0.0033345402 -0.36862087 -0.91653174
-0.0038123808 -0.3690912 -0.9080725
-0.0046056355 -0.3679843 -0.89524376
-0.004584368 -0.37081063 -0.89378875
-0.016255047 -0.3157315 -0.73000133
-0.04278723 -0.18547553 -0.3608872
-0.04277826 -0.18666713 -0.36027375
-0.04324872 -0.1854252 -0.353042
-0.043626126 -0.18462005 -0.34711763
-0.04403163 -0.18363824 -0.34082723
-0.044023078 -0.18477519 -0.3402419
-0.0442306 -0.18477988 -0.3366965
-0.04455638 -0.18414232 -0.33154553
-0.044548005 -0.18525581 -0.3309723
-0.04477377 -0.18511361 -0.32720998
-0.04498295 -0.18504186 -0.32368544
-0.04497471 -0.1861361 -0.3231221
-0.045167584 -0.18612719 -0.3198356
-0.04537728 -0.18600886 -0.31633216
-0.045570176 -0.18596631 -0.31306684
-0.045562144 -0.18703416 -0.3125171
-0.045755573 -0.18696405 -0.30926046
-0.045948792 -0.18687867 -0.30601704
-0.045940887 -0.18792938 -0.30547613
-0.046151113 -0.18772137 -0.30202144
-0.046344876 -0.1875913 -0.29879764
-0.046337105 -0.1886242 -0.2982659
-0.046547554 -0.18837126 -0.29483625
-0.04674169 -0.18819739 -0.29163417
-0.04696924 -0.18780756 -0.28800064
-0.046961676 -0.18881266 -0.28748322
-0.047155797 -0.18859662 -0.28430843
-0.047367293 -0.18825842 -0.28091577
-0.047359865 -0.18924569 -0.28040752
-0.047604766 -0.1886747 -0.27659452
-0.047849778 -0.1880826 -0.2727931
-0.047842506 -0.1890485 -0.27229586
-0.048070885 -0.18853061 -0.2687306
-0.048299417 -0.18799277 -0.2651756
-0.04851122 -0.18754259 -0.26184967
-0.04850417 -0.18847929 -0.26136747
-0.048750184 -0.18778178 -0.2576167
-0.0489454 -0.18739405 -0.25453386
-0.048938494 -0.18831152 -0.25406152
-0.049117662 -0.18800494 -0.25120032
-0.049279764 -0.18779643 -0.24856743
-0.04927297 -0.18869893 -0.24810283
-0.04945212 -0.18835591 -0.24526545
-0.04963135 -0.18799745 -0.24243662
-0.04977689 -0.18785249 -0.24004553
-0.049770266 -0.18873288 -0.2395923
-0.049898535 -0.18868805 -0.2374315
-0.050044365 -0.1885114 -0.23505592
-0.05003783 -0.1893797 -0.23460892
-0.050099522 -0.18977194 -0.23330364
-0.0501612 -0.19015874 -0.23200187
-0.050154712 -0.1910213 -0.23155782
-0.0501991 -0.19152272 -0.23047754
-0.050226558 -0.19214092 -0.22961117
-0.050186593 -0.1932404 -0.22958624
-0.05018012 -0.19410081 -0.2291433
-0.05022416 -0.19459467 -0.22807391
-0.050183687 -0.19570103 -0.22805293
-0.05017722 -0.19656074 -0.22761035
-0.050153706 -0.19754618 -0.22737789
-0.050096188 -0.19878511 -0.22756281
-0.05008969 -0.19964767 -0.22711876
-0.05001513 -0.2010204 -0.22750856
-0.049991578 -0.20201416 -0.22727132
-0.049916964 -0.20339604 -0.22765613
-0.049910422 -0.20426503 -0.22720876
-0.049853135 -0.20552236 -0.22737792
-0.04979529 -0.20678794 -0.22755118
-0.049788725 -0.20766118 -0.22710162
-0.04974789 -0.20880066 -0.22706567
-0.049690165 -0.21007483 -0.22723152
-0.049683563 -0.21095163 -0.22678013
-0.049642846 -0.2120976 -0.22673802
-0.04958524 -0.21338017 -0.22689638
-0.049527206 -0.21467014 -0.22705726
-0.04952056 -0.21555266 -0.22660294
-0.04947975 -0.21671012 -0.22655508
-0.049421832 -0.21800858 -0.22670859
-0.049415164 -0.21889466 -0.22625244
-0.049356982 -0.22020122 -0.22640505
-0.049299188 -0.2215087 -0.22655064
-0.04929249 -0.22239907 -0.22609228
-0.049251348 -0.2235746 -0.22603835
-0.049176343 -0.22503449 -0.22637948
-0.0491011 -0.22650181 -0.22672008
-0.04909435 -0.2273993 -0.22625804
-0.049019244 -0.22887346 -0.22659191
-0.04896083 -0.23021144 -0.22672834
-0.048954036 -0.23111391 -0.22626373
-0.048878822 -0.23260164 -0.22659071
-0.04880337 -0.23409675 -0.22691698
-0.048745036 -0.23544939 -0.2270426
-0.04873819 -0.23635969 -0.22657397
-0.04869679 -0.23757082 -0.2265015
-0.04862141 -0.23908201 -0.22681631
-0.048614524 -0.23999658 -0.22634548
-0.048573263 -0.24121456 -0.22626632
-0.048514787 -0.24258777 -0.22638115
-0.048507873 -0.24350591 -0.2259085
-0.04844937 -0.24488544 -0.22601993
-0.04839104 -0.24626726 -0.22612669
-0.04833224 -0.24765733 -0.22623618
-0.04832528 -0.2485819 -0.2257602
-0.048249662 -0.25013098 -0.22605464
-0.04819101 -0.25153035 -0.2261557
-0.048184015 -0.2524599 -0.22567715
-0.04810809 -0.25402436 -0.22596689
-0.04804938 -0.2554349 -0.22606179
-0.048042346 -0.25636944 -0.22558069
-0.047966357 -0.257947 -0.22586296
-0.04789037 -0.25952992 -0.22614188
-0.047797136 -0.26128027 -0.2266075
-0.047790036 -0.26222405 -0.22612163
-0.047713038 -0.2638304 -0.2264027
-0.047705445 -0.2647815 -0.22592045
-0.047698323 -0.26572818 -0.22543311
-0.047656603 -0.2670068 -0.22532283
-0.047615767 -0.26827958 -0.22520123
-0.04760862 -0.26922905 -0.22471245
-0.047618203 -0.27001613 -0.22404252
-0.047697835 -0.27011928 -0.222617
-0.04786343 -0.2693745 -0.22026928
-0.047856368 -0.27031264 -0.21978632
-0.04800534 -0.26971218 -0.2176297
-0.04817175 -0.26892713 -0.21529403
-0.048164792 -0.2698517 -0.21481805
-0.048313905 -0.26921952 -0.21267943
-0.04848047 -0.2684006 -0.21036285
-0.048473615 -0.26931167 -0.20989384
-0.048605837 -0.2688197 -0.2079535
-0.048738018 -0.26831737 -0.2060202
-0.048870165 -0.26780495 -0.2040941
-0.048863437 -0.26869887 -0.20363389
-0.048995826 -0.26816815 -0.20171534
-0.049128175 -0.2676274 -0.19980402
-0.049121536 -0.26850992 -0.19934969
-0.049237013 -0.2681281 -0.19762416
-0.049386837 -0.2673801 -0.19554783
-0.04938028 -0.2682512 -0.19509937
-0.049513105 -0.26766342 -0.19321014
-0.049628593 -0.2672473 -0.19150648
-0.049761444 -0.26663888 -0.18963008
-0.049755014 -0.26749364 -0.18919004
-0.04988813 -0.26686665 -0.18732102
-0.050004035 -0.26641268 -0.18563464
-0.049997687 -0.26725674 -0.18520011
-0.050113402 -0.266791 -0.18352449
-0.050246794 -0.26612568 -0.18167542
-0.05024052 -0.26695904 -0.1812464
-0.05035641 -0.26646787 -0.17958419
-0.050455205 -0.26615342 -0.17809992
-0.050554086 -0.2658303 -0.17661996
-0.050547916 -0.26665014 -0.17619792
-0.050664037 -0.26612565 -0.1745531
-0.050762907 -0.26578233 -0.17308621
-0.050756805 -0.26659286 -0.17266893
-0.050873104 -0.2660443 -0.17103668
-0.050954815 -0.26587194 -0.16975278
-0.05094878 -0.26667395 -0.1693399
-0.051048107 -0.2662941 -0.16788864
-0.05114731 -0.26590797 -0.16644375
-0.051229242 -0.2657089 -0.1651732
-0.051223297 -0.26649874 -0.16476658
-0.051305536 -0.26628646 -0.16349937
-0.051404744 -0.26587406 -0.16207114
-0.05139886 -0.2666561 -0.16166855
-0.051463477 -0.2666291 -0.16058302
-0.051563054 -0.26619422 -0.15916292
-0.051557228 -0.2669691 -0.158764
-0.051656898 -0.26652145 -0.15735056
-0.051738825 -0.26627228 -0.15611234
-0.05183884 -0.26580566 -0.1547052
-0.051833104 -0.26656842 -0.15431252
-0.051915396 -0.2662981 -0.15308167
-0.051980358 -0.26622525 -0.15201958
-0.051974665 -0.26698157 -0.15163021
-0.05205686 -0.26669684 -0.15041035
-0.05215697 -0.26619285 -0.14902584
-0.052151337 -0.26694134 -0.14864051
-0.05225173 -0.26642206 -0.1472607
-0.052334335 -0.2661084 -0.14605239
-0.052434463 -0.26557755 -0.14468478
-0.05242892 -0.26631394 -0.14430569
-0.05249421 -0.26619303 -0.14326899
-0.05257702 -0.26585424 -0.14207335
-0.052571528 -0.2665842 -0.14169757
-0.052654218 -0.26623714 -0.14050926
-0.052710645 -0.26620543 -0.13956659
-0.052784666 -0.26595283 -0.13846539
-0.052779242 -0.26667354 -0.13809435
-0.05285334 -0.26641148 -0.13699819
-0.052936308 -0.26603353 -0.13582501
-0.052930936 -0.26674747 -0.13545747
-0.05298781 -0.26668525 -0.13452664
-0.053062186 -0.26639965 -0.13344081
-0.05305686 -0.26710787 -0.1330762
-0.053122252 -0.2669265 -0.13207658
-0.05319647 -0.26662865 -0.13100126
-0.05326174 -0.2664383 -0.13000962
-0.05325647 -0.26713765 -0.12964958
-0.053339727 -0.2667107 -0.12850304
-0.05340561 -0.26649913 -0.12751466
-0.053400394 -0.26719207 -0.12715793
-0.053438745 -0.267326 -0.12641719
-0.0534945 -0.26723266 -0.12552537
-0.053489316 -0.26792142 -0.1251708
-0.053563323 -0.26758546 -0.124123745
-0.053628292 -0.2673609 -0.12315911
-0.053701237 -0.2670275 -0.12212841
-0.053696126 -0.26770714 -0.121778525
-0.053743966 -0.26769382 -0.12097044
-0.053815357 -0.26736766 -0.11996166
-0.053810284 -0.26804212 -0.11961443
-0.053826157 -0.26844004 -0.11908732
-0.05388174 -0.26831135 -0.11822147
-0.053876687 -0.26898256 -0.11787593
-0.053958695 -0.2684956 -0.116789185
-0.054105073 -0.267144 -0.11516012
-0.054162357 -0.2669729 -0.11429227
-0.054157395 -0.2676321 -0.11395292
-0.054414436 -0.26476845 -0.111407325
-0.054488976 -0.2643465 -0.110406466
-0.054484118 -0.2649921 -0.11007412
-0.054672103 -0.26302388 -0.1081312
-0.001793099 -0.31306756 -1.0387222
-0.0017695812 -0.31619316 -1.0371131
-0.001832969 -0.31897444 -1.0341663
-0.0017731909 -0.32224146 -1.0331168
-0.0017496918 -0.32536474 -1.0315089
-0.0020557614 -0.3271388 -1.0248559
-0.002578373 -0.32798797 -1.0149128
-0.003385341 -0.32760012 -1.0006644
-0.0033624193 -0.33064616 -0.9990962
-0.0039701876 -0.33099967 -0.98794526
-0.0044275965 -0.3319464 -0.9791105
-0.0044050547 -0.3349422 -0.97756827
-0.0045105154 -0.33737472 -0.974092
-0.0046140193 -0.33980477 -0.9706526
-0.0045915633 -0.34278908 -0.9691162
-0.0045647807 -0.345793 -0.9676449
-0.004568453 -0.34865803 -0.9657166
-0.0045916084 -0.35143074 -0.96349823
-0.0045691747 -0.354412 -0.9619635
-0.004705676 -0.35664544 -0.9580589
-0.0048877555 -0.3586485 -0.95348495
-0.0048654485 -0.3616134 -0.9519586
-0.005264351 -0.36254132 -0.9441874
-0.005695631 -0.3632747 -0.93596095
-0.005673618 -0.36620018 -0.93445486
-0.0059842626 -0.3674737 -0.928045
-0.006524635 -0.36756754 -0.9182738
-0.0062464797 -0.37174854 -0.92055434
-0.006224683 -0.3746453 -0.9190631
-0.00881973 -0.36409372 -0.87929046
-0.0431783 -0.18870658 -0.37589338
-0.04316901 -0.18994135 -0.3752577
-0.044112 -0.18615888 -0.3607713
-0.044687435 -0.18424678 -0.3516742
-0.04467866 -0.18541257 -0.35107404
-0.044868644 -0.18550555 -0.34759977
-0.045287948 -0.1843337 -0.34082684
-0.04553317 -0.18407966 -0.33658534
-0.045524698 -0.185206 -0.33600548
-0.0457871 -0.18482363 -0.3315389
-0.046017308 -0.1845987 -0.32754835
-0.046009008 -0.18570222 -0.32698023
-0.04622398 -0.18553342 -0.323227
-0.046391077 -0.18562043 -0.32016796
-0.046382904 -0.18670611 -0.31960905
-0.046582244 -0.18658274 -0.31610727
-0.04676558 -0.18653552 -0.31284347
-0.046949368 -0.18646933 -0.309584
-0.046941396 -0.18752861 -0.30903864
-0.047141176 -0.18734194 -0.30557004
-0.047325134 -0.18723312 -0.3023351
-0.047317296 -0.18827456 -0.30179894
-0.04751731 -0.18804292 -0.29835543
-0.047701497 -0.18789124 -0.29514438
-0.047693793 -0.18891488 -0.29461738
-0.047894187 -0.18863735 -0.2911968
-0.04809457 -0.18834229 -0.2877879
-0.048279263 -0.18812902 -0.28460783
-0.04827176 -0.18912555 -0.2840948
-0.04848847 -0.18868218 -0.28048882
-0.048705284 -0.18821916 -0.27689376
-0.048697937 -0.18919577 -0.276391
-0.048930977 -0.18859805 -0.27259195
-0.04914836 -0.1880832 -0.2690203
-0.04914117 -0.18903914 -0.26852816
-0.049358528 -0.18849607 -0.26497546
-0.04955995 -0.18804105 -0.26165166
-0.049777854 -0.18745717 -0.2581158
-0.04977088 -0.18838388 -0.2576387
-0.049924694 -0.18821017 -0.2549877
-0.05011077 -0.18780074 -0.25191006
-0.050103914 -0.18871178 -0.25144106
-0.050274085 -0.18838893 -0.24859305
-0.05046047 -0.18793754 -0.24553728
-0.050453734 -0.1888322 -0.24507672
-0.050591998 -0.18869798 -0.2426795
-0.050745953 -0.18843967 -0.24008107
-0.05085268 -0.18850687 -0.23811941
-0.050846092 -0.18938297 -0.23766838
-0.050985113 -0.18920147 -0.23528826
-0.05105883 -0.18948485 -0.2337794
-0.051052317 -0.19035096 -0.23333351
-0.051126905 -0.19061783 -0.23181967
-0.051137287 -0.19135503 -0.23115394
-0.05113079 -0.19221692 -0.23071043
-0.0511243 -0.19307873 -0.23026676
-0.05110163 -0.19406284 -0.23003453
-0.051127102 -0.19468257 -0.22917399
-0.05112062 -0.19554369 -0.22873068
-0.051081426 -0.19665605 -0.22871198
-0.051042758 -0.19776703 -0.22868459
-0.051036254 -0.198631 -0.22823982
-0.05098108 -0.19987485 -0.22842282
-0.050893478 -0.20137711 -0.22902048
-0.050870683 -0.20237496 -0.22878148
-0.050864134 -0.20324534 -0.2283334
-0.050792675 -0.20463301 -0.22871542
-0.05075365 -0.2057663 -0.22868013
-0.050747063 -0.20664096 -0.22822985
-0.050707854 -0.20777969 -0.2281942
-0.050668783 -0.20892002 -0.22815512
-0.050662182 -0.20979755 -0.22770336
-0.05060682 -0.21107571 -0.22786732
-0.05056769 -0.21222387 -0.22782421
-0.050528355 -0.21337637 -0.22778186
-0.050521716 -0.21425891 -0.22732753
-0.050482523 -0.21541424 -0.2272808
-0.050427027 -0.21670958 -0.22743605
-0.05042036 -0.21759568 -0.22697988
-0.050365 -0.21889585 -0.22712953
-0.05032572 -0.22006263 -0.22707696
-0.050319023 -0.22095229 -0.22661898
-0.050263222 -0.22226557 -0.22676806
-0.05020775 -0.22358 -0.2269104
-0.050152067 -0.2249003 -0.22705284
-0.050145324 -0.22579636 -0.22659154
-0.050073255 -0.2272666 -0.22693078
-0.050017487 -0.22859833 -0.22706737
-0.050010707 -0.22949937 -0.22660351
-0.04993854 -0.23098315 -0.22693577
-0.0498665 -0.23247115 -0.22726308
-0.049859677 -0.23337789 -0.22679628
-0.049787402 -0.23487598 -0.2271213
-0.049731616 -0.2362297 -0.22724374
-0.049675636 -0.2375892 -0.22736603
-0.04966876 -0.23850308 -0.22689556
-0.04961274 -0.23986894 -0.22701444
-0.04955668 -0.24123901 -0.22713108
-0.049549766 -0.24215716 -0.2266584
-0.04949368 -0.24353361 -0.22677164
-0.049437575 -0.24491416 -0.2268825
-0.04943063 -0.24583659 -0.22640763
-0.049374476 -0.24722353 -0.22651517
-0.049302068 -0.24876852 -0.22681202
-0.04924585 -0.25016472 -0.22691472
-0.049238853 -0.25109422 -0.2264362
-0.049182598 -0.25249672 -0.2265355
-0.049126092 -0.25390553 -0.2266351
-0.049119066 -0.25483936 -0.22615437
-0.04906303 -0.2562496 -0.22624466
-0.048973862 -0.25798714 -0.22671744
-0.0489668 -0.2589266 -0.22623378
-0.048893746 -0.26051542 -0.22651367
-0.048836596 -0.2619525 -0.22660659
-0.048763636 -0.26355034 -0.22687903
-0.048756506 -0.26449773 -0.22639132
-0.048699934 -0.26593953 -0.22647056
-0.04859375 -0.2678835 -0.22711504
-0.048586573 -0.2688373 -0.22662401
-0.048629176 -0.2692873 -0.22556597
-0.048655115 -0.2699026 -0.22469993
-0.048647963 -0.27085283 -0.22421075
-0.048772756 -0.2704519 -0.22222896
-0.048930444 -0.2697022 -0.21988262
-0.049072035 -0.26910558 -0.21772617
-0.04906503 -0.2700366 -0.21724688
-0.04922336 -0.26924825 -0.21491434
-0.04934881 -0.26878986 -0.21295793
-0.049341902 -0.26970804 -0.21248525
-0.04950049 -0.26888534 -0.21017018
-0.049642727 -0.26822227 -0.20804533
-0.049635924 -0.26912692 -0.20757961
-0.049745265 -0.26879603 -0.20582995
-0.049871035 -0.26828057 -0.203905
-0.049997002 -0.2677525 -0.20198473
-0.04999032 -0.26864073 -0.20152745
-0.05011641 -0.26809555 -0.19961597
-0.05024259 -0.26753896 -0.19771035
-0.050235998 -0.2684158 -0.19725893
-0.050362315 -0.26784208 -0.1953621
-0.050488584 -0.26725835 -0.19347253
-0.050615065 -0.26666182 -0.19158742
-0.050608598 -0.26752156 -0.19114482
-0.05071858 -0.26709205 -0.18944773
-0.050845273 -0.26646775 -0.18757696
-0.05083888 -0.2673168 -0.18713988
-0.050965566 -0.2666769 -0.1852794
-0.05105929 -0.26639664 -0.18377738
-0.05105298 -0.2672357 -0.18334542
-0.051179994 -0.2665673 -0.18149751
-0.051290277 -0.26607832 -0.17983367
-0.051384244 -0.2657659 -0.17834811
-0.051378045 -0.26658997 -0.17792386
-0.051488493 -0.26607698 -0.17627266
-0.051599167 -0.26555222 -0.17462493
-0.051593043 -0.26636633 -0.17420582
-0.05168697 -0.26602197 -0.17274201
-0.051781293 -0.26566508 -0.17127898
-0.051775236 -0.26647064 -0.17086428
-0.05186967 -0.26610076 -0.16940778
-0.051963985 -0.26572445 -0.16795754
-0.05204183 -0.2655343 -0.16668235
-0.05203586 -0.26632774 -0.16627388
-0.05213034 -0.2659307 -0.16483425
-0.05220834 -0.26572177 -0.16356842
-0.052202426 -0.26650736 -0.16316399
-0.05228051 -0.26628768 -0.16190365
-0.052358452 -0.2660632 -0.16064896
-0.052352596 -0.26684168 -0.1602482
-0.05244739 -0.26640382 -0.1588294
-0.052525472 -0.26616088 -0.15758431
-0.052620385 -0.26570666 -0.15617394
-0.052614618 -0.266473 -0.15577944
-0.052693047 -0.26620904 -0.15454186
-0.052771118 -0.26594284 -0.15331197
-0.052765403 -0.26670206 -0.15292113
-0.052843757 -0.26642272 -0.15169473
-0.052922167 -0.26613626 -0.150472
-0.052916504 -0.26688832 -0.15008484
-0.05301182 -0.26638135 -0.14870162
-0.053090554 -0.2660741 -0.14748664
-0.053169142 -0.265762 -0.14627719
-0.05316357 -0.26650268 -0.14589588
-0.053242255 -0.26617983 -0.14469187
-0.053320985 -0.2658499 -0.14349157
-0.053315464 -0.2665834 -0.14311393
-0.053394195 -0.26624388 -0.14191993
-0.053464543 -0.266005 -0.14081119
-0.053459074 -0.2667318 -0.14043704
-0.0535128 -0.26669782 -0.1394937
-0.053583138 -0.26644516 -0.13839395
-0.053653844 -0.266182 -0.13729447
-0.053648442 -0.26689985 -0.13692491
-0.053735778 -0.2664118 -0.13567287
-0.0537897 -0.26635236 -0.13474245
-0.05378435 -0.2670638 -0.13437618
-0.053846672 -0.26688746 -0.1333709
-0.053917147 -0.2665987 -0.13229218
-0.053911835 -0.2673041 -0.13192904
-0.05398287 -0.26699945 -0.13085076
-0.054045003 -0.26680696 -0.12985927
-0.054124318 -0.26638088 -0.12871112
-0.05411908 -0.26707667 -0.12835291
-0.054181036 -0.2668733 -0.12737189
-0.054225743 -0.2668962 -0.12655358
-0.054220542 -0.26758707 -0.12619792
-0.05427404 -0.2674857 -0.12530243
-0.05434363 -0.2671622 -0.12426229
-0.054338474 -0.26784745 -0.12390951
-0.054400265 -0.26762164 -0.122946
-0.05446242 -0.26738578 -0.121982455
-0.05451099 -0.2673308 -0.12114547
-0.054505892 -0.26800817 -0.12079675
-0.054573894 -0.26767966 -0.11978829
-0.054586183 -0.26811442 -0.119284876
-0.054581117 -0.26878804 -0.1189381
-0.054635584 -0.26863554 -0.11805828
-0.05471998 -0.2680625 -0.11691431
-0.05471496 -0.26872987 -0.11657074
-0.05485735 -0.2673356 -0.11491832
-0.054913145 -0.2671447 -0.11403989
-0.05516043 -0.26425683 -0.11147344
-0.05515555 -0.26490495 -0.11113979
-0.055223454 -0.26452446 -0.11016708
-0.05538989 -0.26274207 -0.10833499
-0.055385083 -0.26338 -0.10800659
-0.005292502 -0.31473067 -1.0380611
-0.005351438 -0.3175138 -1.0351132
-0.00532795 -0.32063547 -1.0335062
-0.00527002 -0.32390332 -1.0324563
-0.0055592586 -0.3256844 -1.0257988
-0.0055358713 -0.32879278 -1.0241985
-0.0060308 -0.32962877 -1.0142608
-0.0067956834 -0.32922092 -1.0000201
-0.0073712915 -0.32958776 -0.98886055
-0.007348586 -0.33260524 -0.98730713
-0.0077816797 -0.33354044 -0.978477
-0.007880625 -0.33597568 -0.974999
-0.007858128 -0.3389657 -0.9734597
-0.007955254 -0.34139273 -0.9700215
-0.007928692 -0.34439653 -0.9685502
-0.007906236 -0.3473811 -0.9670137
-0.007908588 -0.35024542 -0.96508574
-0.007929434 -0.35301706 -0.9628678
-0.008057859 -0.35525385 -0.95896107
-0.008035481 -0.3582279 -0.95743
-0.008207246 -0.3602261 -0.952858
-0.008584766 -0.3611629 -0.945081
-0.0085626 -0.36410883 -0.9435644
-0.008971014 -0.36483133 -0.9353423
-0.00926479 -0.36611181 -0.92892784
-0.0092428895 -0.36902234 -0.9274295
-0.0097549455 -0.36910275 -0.91766363
-0.009489702 -0.37328988 -0.9199418
-0.011952203 -0.36279333 -0.8801335
-0.011931293 -0.36557248 -0.87870276
-0.04456075 -0.18936358 -0.37563226
-0.045455564 -0.18560113 -0.3611329
-0.0454466 -0.18679315 -0.36051923
-0.045992658 -0.1848671 -0.35142767
-0.0461726 -0.18496425 -0.34795073
-0.046570282 -0.18380137 -0.34117195
-0.04656172 -0.18493906 -0.34058625
-0.04679421 -0.18467899 -0.33634716
-0.047042936 -0.18430229 -0.33187684
-0.047034547 -0.18541649 -0.33130327
-0.047252804 -0.18518588 -0.32731497
-0.04745651 -0.18502176 -0.3235587
-0.047448285 -0.18611528 -0.32299575
-0.0476066 -0.18619812 -0.31993836
-0.04779548 -0.18607908 -0.3164338
-0.04796918 -0.18603587 -0.3131674
-0.04796115 -0.18710372 -0.31261763
-0.048135344 -0.18703297 -0.30935997
-0.04832467 -0.18685064 -0.30588853
-0.048316766 -0.18790063 -0.30534798
-0.048491143 -0.18778726 -0.30211487
-0.04868071 -0.18755996 -0.29866853
-0.04867294 -0.18859214 -0.29813716
-0.048847545 -0.18843591 -0.2949279
-0.049037494 -0.18816273 -0.29150447
-0.04922744 -0.187872 -0.2880928
-0.049219877 -0.18887709 -0.28757536
-0.049394973 -0.18865928 -0.2843971
-0.049600456 -0.18822056 -0.2807881
-0.049593028 -0.18920712 -0.2802802
-0.04979868 -0.18873881 -0.27668723
-0.050019678 -0.1881461 -0.27288496
-0.050012406 -0.18911201 -0.2723877
-0.05021862 -0.18859185 -0.26881814
-0.050424743 -0.18805344 -0.2652624
-0.050615735 -0.18760276 -0.26193583
-0.050608687 -0.18853948 -0.2614536
-0.050815407 -0.18795027 -0.25791982
-0.05096118 -0.18777989 -0.25526664
-0.050954267 -0.18869948 -0.25479323
-0.051130768 -0.1882855 -0.25171742
-0.051292103 -0.18796632 -0.24886703
-0.051285308 -0.18886952 -0.24840204
-0.05146211 -0.18841359 -0.2453481
-0.051593147 -0.18828237 -0.24294893
-0.051739078 -0.18802738 -0.24034835
-0.051732454 -0.18890852 -0.23989475
-0.051833577 -0.18897304 -0.23793414
-0.05196534 -0.18879454 -0.23555206
-0.0519588 -0.18966423 -0.23510434
-0.05202855 -0.1899457 -0.23359624
-0.0520991 -0.19021423 -0.23208131
-0.05209261 -0.19107679 -0.23163727
-0.05210216 -0.19181359 -0.2309717
-0.052095663 -0.19267549 -0.23052819
-0.052073795 -0.19365928 -0.23029616
-0.052067306 -0.1945218 -0.22985214
-0.0520912 -0.19514078 -0.22899188
-0.05205363 -0.19625247 -0.22897363
-0.05204714 -0.19711503 -0.22852957
-0.05201006 -0.19822676 -0.22850189
-0.051957298 -0.1994696 -0.22868554
-0.05195078 -0.20033571 -0.22823966
-0.051867165 -0.20183988 -0.22883657
-0.051845174 -0.2028381 -0.22859742
-0.051776927 -0.20422442 -0.2289803
-0.051770356 -0.20509768 -0.22853075
-0.051732924 -0.20623171 -0.22849517
-0.051695332 -0.20736977 -0.22845995
-0.05168874 -0.20824586 -0.22800894
-0.05165126 -0.20938696 -0.22796954
-0.051598314 -0.21066412 -0.22813416
-0.05159169 -0.21154378 -0.22768131
-0.051554155 -0.21269271 -0.22763787
-0.05151643 -0.21384598 -0.22759522
-0.051478844 -0.21500064 -0.22754893
-0.05147219 -0.2158846 -0.22709386
-0.051419087 -0.21718109 -0.22724865
-0.051366135 -0.21848026 -0.22739896
-0.051359452 -0.21936849 -0.22694169
-0.051321767 -0.22053602 -0.22688884
-0.05126838 -0.22184831 -0.22703856
-0.051261675 -0.22274011 -0.22657946
-0.051208578 -0.22405566 -0.22672136
-0.051155295 -0.22537708 -0.22686335
-0.051086444 -0.22684601 -0.22720346
-0.05107968 -0.22774492 -0.22674069
-0.051026296 -0.22907777 -0.22687683
-0.05095735 -0.23056023 -0.22720997
-0.050950546 -0.23146413 -0.22674462
-0.050881688 -0.23295362 -0.22707133
-0.05081263 -0.23445038 -0.2273972
-0.050759245 -0.23580311 -0.2275203
-0.05075239 -0.23671483 -0.22705095
-0.050698802 -0.23807548 -0.22717276
-0.050645187 -0.23944034 -0.2272923
-0.050638296 -0.24035634 -0.22682074
-0.050584637 -0.24172758 -0.22693692
-0.05053096 -0.24310301 -0.2270508
-0.05052403 -0.24402328 -0.22657703
-0.050470307 -0.24540499 -0.22668743
-0.050416566 -0.24679095 -0.22679563
-0.05034736 -0.2483346 -0.22709334
-0.05034038 -0.249262 -0.2266159
-0.050286554 -0.2506593 -0.22671816
-0.050232705 -0.2520608 -0.2268181
-0.050225694 -0.25299248 -0.22633846
-0.050171588 -0.25440243 -0.22643763
-0.050117943 -0.2558117 -0.22652857
-0.050110903 -0.25674763 -0.22604673
-0.05002572 -0.25848702 -0.22651877
-0.0499559 -0.2600745 -0.22679952
-0.049901187 -0.26151055 -0.2268931
-0.04989408 -0.26245505 -0.22640686
-0.0498243 -0.26405445 -0.22667868
-0.04977015 -0.26549527 -0.22675858
-0.049763005 -0.26644477 -0.22626978
-0.04966161 -0.26839104 -0.22691333
-0.04970179 -0.268842 -0.22585464
-0.04969463 -0.26979363 -0.22536474
-0.04971897 -0.2704082 -0.22449899
-0.04983734 -0.27000996 -0.22251546
-0.049987026 -0.2692636 -0.22016698
-0.04997997 -0.27020103 -0.21968439
-0.05011438 -0.269601 -0.21752928
-0.050264675 -0.26881596 -0.21519458
-0.050257724 -0.26973984 -0.21471897
-0.050376795 -0.26927844 -0.21276376
-0.05052736 -0.26845908 -0.21044654
-0.0505205 -0.2693701 -0.20997751
-0.05065556 -0.26870364 -0.20785402
-0.050759267 -0.2683751 -0.20610283
-0.050878607 -0.2678623 -0.20417617
-0.05087188 -0.26875624 -0.20371597
-0.050991468 -0.26822513 -0.20179689
-0.051111136 -0.26768264 -0.19988367
-0.051104497 -0.26856518 -0.19942935
-0.051224288 -0.26800552 -0.19752492
-0.051344182 -0.26743448 -0.19562633
-0.051337626 -0.2683056 -0.19517788
-0.051457517 -0.26771885 -0.19328952
-0.051577613 -0.2671193 -0.19140561
-0.051681977 -0.26669213 -0.18970701
-0.051675547 -0.26754686 -0.18926698
-0.051795848 -0.26691952 -0.18739742
-0.05191611 -0.2662823 -0.18553522
-0.051909763 -0.26712567 -0.18510105
-0.051998697 -0.2668431 -0.18359993
-0.05211928 -0.26617736 -0.1817503
-0.052113015 -0.26701072 -0.18132128
-0.05221772 -0.26651913 -0.17965849
-0.052306894 -0.2662044 -0.17817384
-0.052411724 -0.26569372 -0.17652112
-0.052405562 -0.26651284 -0.17609943
-0.052510656 -0.2659854 -0.17445278
-0.05259976 -0.26564306 -0.17298767
-0.052593667 -0.2664529 -0.17257075
-0.0526832 -0.26609373 -0.17110865
-0.0527728 -0.26572588 -0.16965084
-0.052766774 -0.26652715 -0.16923833
-0.052856304 -0.26614854 -0.167789
-0.052930146 -0.26595652 -0.16651456
-0.053019814 -0.26556146 -0.16507362
-0.053013876 -0.2663506 -0.16466737
-0.053087875 -0.2661398 -0.16340229
-0.053161938 -0.26592177 -0.16214086
-0.05315605 -0.2667038 -0.16173828
-0.05323 -0.26647744 -0.16048433
-0.053319972 -0.2660416 -0.15906425
-0.053314146 -0.26681578 -0.15866569
-0.05338824 -0.26657093 -0.15742135
-0.053478364 -0.26611444 -0.15601188
-0.05355276 -0.26585215 -0.15477324
-0.053547025 -0.2666149 -0.15438056
-0.05362111 -0.2663468 -0.15315142
-0.053695448 -0.26606917 -0.15192394
-0.053689763 -0.2668248 -0.15153493
-0.05376418 -0.2665364 -0.15031296
-0.053854674 -0.26603144 -0.14892845
-0.05384905 -0.26677924 -0.14854348
-0.053923775 -0.26647007 -0.14732927
-0.053998377 -0.2661561 -0.14612055
-0.054073047 -0.26583496 -0.14491546
-0.054067496 -0.26657203 -0.144536
-0.05414224 -0.2662402 -0.14333643
-0.054216955 -0.26590234 -0.14214136
-0.054211464 -0.2666323 -0.14176556
-0.05427822 -0.26639175 -0.14065748
-0.054329123 -0.26635894 -0.1397134
-0.054395862 -0.26610777 -0.13861269
-0.054390438 -0.26682884 -0.13824147
-0.054457553 -0.26656398 -0.13714266
-0.05454047 -0.26607776 -0.13588943
-0.0545351 -0.2667917 -0.13552187
-0.054586228 -0.26673093 -0.134592
-0.054645337 -0.2665559 -0.13358586
-0.054640003 -0.26726452 -0.13322106
-0.0547069 -0.26697406 -0.13214302
-0.054774314 -0.2666709 -0.13106376
-0.054833252 -0.26647976 -0.13007142
-0.054827992 -0.2671791 -0.12971139
-0.05490332 -0.2667511 -0.12856397
-0.054962087 -0.26654905 -0.1275821
-0.054956872 -0.267242 -0.12722535
-0.05499924 -0.26726383 -0.12640747
-0.05504996 -0.2671636 -0.12551126
-0.055044774 -0.267852 -0.12515685
-0.055110846 -0.26752684 -0.124117374
-0.055169463 -0.26730233 -0.123153016
-0.055228446 -0.26706776 -0.12218861
-0.055223327 -0.26774743 -0.121838726
-0.055269383 -0.26769122 -0.12100222
-0.055333927 -0.26736414 -0.11999283
-0.055328853 -0.26803848 -0.119645685
-0.05534033 -0.26847285 -0.11914243
-0.055391997 -0.26832154 -0.11826185
-0.055386946 -0.26899263 -0.11791636
-0.055467147 -0.26841763 -0.11677317
-0.055602595 -0.26702625 -0.11511888
-0.05565552 -0.26683655 -0.11423968
-0.055650566 -0.2674952 -0.113900594
-0.05588604 -0.2646017 -0.11133639
-0.05595051 -0.26422265 -0.11036275
-0.05594566 -0.2648677 -0.110030666
-0.05610408 -0.26308152 -0.10820009
-0.008939228 -0.31876513 -1.032862
-0.008877448 -0.3220532 -1.0319132
-0.0088539785 -0.3251721 -1.0303075
-0.009067752 -0.3272089 -1.0246575
-0.009358574 -0.3288675 -1.0177119
-0.010083406 -0.3284737 -1.0034158
-0.010060432 -0.33152705 -1.0018439
-0.010738524 -0.33124647 -0.9884113
-0.011168895 -0.3320879 -0.979207
-0.011146357 -0.33508316 -0.977665
-0.011215625 -0.33762842 -0.97457874
-0.011377184 -0.33970812 -0.96994895
-0.01135475 -0.34268948 -0.9684141
-0.011356666 -0.345548 -0.966472
-0.011429934 -0.3480407 -0.96334046
-0.011387714 -0.35111806 -0.9621391
-0.011365321 -0.3540944 -0.96060693
-0.011499945 -0.35624808 -0.95646876
-0.011705263 -0.35801283 -0.9511697
-0.011683015 -0.36096987 -0.9496474
-0.012046416 -0.36185068 -0.94176185
-0.012374189 -0.36288792 -0.93448776
-0.012352217 -0.36580813 -0.9329845
-0.012423135 -0.3682149 -0.9299574
-0.012642014 -0.3697877 -0.9245138
-0.012539824 -0.37314302 -0.92433184
-0.012517949 -0.3760505 -0.92283505
-0.020752361 -0.33173627 -0.7869569
-0.04674584 -0.18421043 -0.36311957
-0.046736848 -0.18540557 -0.3625043
-0.046915736 -0.1854992 -0.35884896
-0.047387835 -0.18384187 -0.35047048
-0.047379088 -0.18500361 -0.3498724
-0.047524925 -0.185237 -0.34678787
-0.04782988 -0.18449244 -0.34115863
-0.048078477 -0.1840619 -0.33645228
-0.048070006 -0.1851875 -0.33587283
-0.048304483 -0.18480782 -0.33141625
-0.048482276 -0.1847589 -0.3278777
-0.04847397 -0.18586314 -0.32730925
-0.048652325 -0.1857843 -0.32377964
-0.048815954 -0.18578173 -0.32049483
-0.04880778 -0.18686813 -0.31993553
-0.049000617 -0.18665192 -0.3162063
-0.049164742 -0.1866041 -0.3129416
-0.04934364 -0.18644291 -0.30945575
-0.049335677 -0.18750149 -0.3089108
-0.04950028 -0.18740927 -0.3056663
-0.049679246 -0.18720424 -0.30220821
-0.049671415 -0.18824498 -0.30167243
-0.049850613 -0.18801203 -0.2982284
-0.050015718 -0.1878581 -0.2950147
-0.05000802 -0.18888102 -0.2944881
-0.05018744 -0.18860328 -0.29106942
-0.050366994 -0.18830705 -0.28766036
-0.050532445 -0.18809266 -0.28448012
-0.05052495 -0.1890885 -0.28396747
-0.050690603 -0.18884835 -0.2808003
-0.050885215 -0.18838392 -0.2772008
-0.05087786 -0.18936123 -0.27669767
-0.051072467 -0.18886852 -0.2731171
-0.051281635 -0.1882503 -0.2693276
-0.051274437 -0.18920694 -0.26883513
-0.051469386 -0.18866396 -0.26528114
-0.05163555 -0.18831705 -0.2621748
-0.051831007 -0.18773395 -0.25863725
-0.051824026 -0.1886621 -0.25815943
-0.05197628 -0.18837929 -0.2552896
-0.0521283 -0.18808356 -0.25243327
-0.052121438 -0.18899603 -0.25196353
-0.052274365 -0.18867117 -0.24910839
-0.052441537 -0.18822053 -0.2460508
-0.052434795 -0.1891166 -0.24558951
-0.05257261 -0.18887316 -0.24298346
-0.052711528 -0.18860766 -0.24037011
-0.052806962 -0.18867551 -0.23840812
-0.05280037 -0.1895523 -0.23795675
-0.052924488 -0.18937458 -0.23558207
-0.05299092 -0.18965289 -0.23406245
-0.0529844 -0.19051969 -0.23361622
-0.05303602 -0.19090943 -0.23231985
-0.0530298 -0.19177113 -0.23187108
-0.05303781 -0.19251464 -0.23121497
-0.053031314 -0.19337788 -0.23077057
-0.05299538 -0.19448805 -0.23075297
-0.05295969 -0.1955989 -0.23073009
-0.052953172 -0.19646502 -0.23028421
-0.052888513 -0.19782688 -0.23067608
-0.052838117 -0.19907174 -0.2308592
-0.05283156 -0.19994284 -0.23041075
-0.052781135 -0.20119402 -0.23059045
-0.05273053 -0.2024507 -0.23076984
-0.052694708 -0.2035821 -0.23073608
-0.052688107 -0.20445889 -0.23028469
-0.052637637 -0.20572382 -0.2304561
-0.05260163 -0.20686407 -0.23041989
-0.05259501 -0.20774443 -0.22996667
-0.052558973 -0.20888901 -0.22992826
-0.052522905 -0.21003649 -0.22988848
-0.05251626 -0.21091974 -0.22943377
-0.052465793 -0.21220249 -0.22959307
-0.052415166 -0.21349083 -0.22975218
-0.0523935 -0.21451633 -0.22950433
-0.052386817 -0.21540457 -0.22904706
-0.05233627 -0.21670069 -0.22919916
-0.052300215 -0.21786542 -0.22914779
-0.0522935 -0.21875723 -0.22868869
-0.052242715 -0.22006482 -0.2288379
-0.052206602 -0.22123738 -0.22878247
-0.052199867 -0.22213274 -0.22832154
-0.05213446 -0.22358951 -0.22866507
-0.052098114 -0.22477216 -0.22860745
-0.05204719 -0.22609828 -0.22874708
-0.05204041 -0.22700006 -0.22828284
-0.051975023 -0.22847316 -0.22861515
-0.051923856 -0.2298122 -0.22875105
-0.05191704 -0.23071896 -0.22828425
-0.051851388 -0.23220713 -0.2286118
-0.051785685 -0.2337011 -0.22893652
-0.051778823 -0.23461354 -0.22846678
-0.05172767 -0.23596963 -0.22859108
-0.051661722 -0.23747857 -0.2289108
-0.051625274 -0.2386946 -0.22883306
-0.05161836 -0.23961347 -0.22836003
-0.051581886 -0.24083379 -0.22828004
-0.05151595 -0.24235831 -0.22858901
-0.051509008 -0.24328145 -0.22811377
-0.05145783 -0.24466154 -0.22822273
-0.051406328 -0.24604873 -0.22833316
-0.051399354 -0.24697615 -0.22785571
-0.051347964 -0.24836819 -0.22796082
-0.051296547 -0.24976452 -0.22806375
-0.05125992 -0.2510087 -0.22797084
-0.0512529 -0.2519418 -0.22749048
-0.051201414 -0.253348 -0.22758812
-0.051149923 -0.2547582 -0.22768325
-0.051142868 -0.25569555 -0.22720067
-0.051076766 -0.257269 -0.22748049
-0.050995633 -0.2590103 -0.22795053
-0.050988525 -0.25995407 -0.22746468
-0.050922643 -0.26153886 -0.22773266
-0.050870392 -0.26297957 -0.22782277
-0.050787993 -0.26475558 -0.22829504
-0.050780825 -0.26570794 -0.22780475
-0.050728075 -0.26716542 -0.22789374
-0.050662883 -0.26876515 -0.22813763
-0.050655685 -0.2697225 -0.22764479
-0.05072269 -0.2698478 -0.22621554
-0.05078981 -0.26996538 -0.22478922
-0.05078266 -0.27091563 -0.22430004
