ply
format ascii 1.0
element vertex 1371
property float x
property float y
property float z
end_header
0.5789463 -0.4020626 -0.046786103
0.5736472 -0.40197125 -0.045994256
0.57267505 -0.4034727 -0.046043735
0.5682703 -0.403674 -0.045421094
0.5652577 -0.40438303 -0.04506852
0.5617705 -0.40489423 -0.044620715
0.56081325 -0.4063727 -0.044669434
0.5551401 -0.4059972 -0.043786056
0.46241117 -0.37104794 -0.025651319
0.46163455 -0.3722474 -0.025690848
0.38730416 -0.34372756 -0.011089496
0.3779852 -0.34117427 -0.00939003
0.37736315 -0.342135 -0.009421689
0.37170863 -0.34100673 -0.0084445
0.36743757 -0.34042054 -0.0077405185
0.36258513 -0.33956143 -0.0069159404
0.3619876 -0.34048432 -0.0069463537
0.35788375 -0.3398994 -0.006267152
0.3538582 -0.33932203 -0.0056004524
0.3532739 -0.34022447 -0.0056301923
0.35020417 -0.34002993 -0.005153312
0.34735808 -0.33991605 -0.004719698
0.3467829 -0.3408044 -0.004748974
0.34554255 -0.34139156 -0.0046416908
0.34406734 -0.34186634 -0.0044854204
0.34350115 -0.3427528 -0.004515775
0.34292898 -0.34363654 -0.0045448984
0.3423523 -0.34451818 -0.0045731
0.34177354 -0.34539878 -0.004600854
0.34120136 -0.34628248 -0.0046299766
0.34175643 -0.34770742 -0.0048944717
0.3427472 -0.3493522 -0.005251332
0.34394783 -0.35111186 -0.0056538037
0.3433669 -0.3520091 -0.0056833713
0.34457055 -0.3537916 -0.0060892296
0.34554544 -0.35547403 -0.006448567
0.34495792 -0.35638142 -0.006478468
0.3457017 -0.35796538 -0.0067911516
0.3464385 -0.3595566 -0.00710374
0.34584573 -0.36047208 -0.007133911
0.34634697 -0.361957 -0.0073981825
0.3470793 -0.36357218 -0.0077131907
0.34737313 -0.36496645 -0.007935294
0.34677374 -0.36589217 -0.007965802
0.34727195 -0.36740735 -0.008233508
0.34755918 -0.36881757 -0.008456693
0.3469558 -0.36974946 -0.008487404
0.3474335 -0.37127557 -0.008753498
0.34812337 -0.37292835 -0.009067072
0.3475152 -0.37386766 -0.009098027
0.34798607 -0.3754139 -0.009365698
0.34847125 -0.37697744 -0.0096376855
0.34917405 -0.37867472 -0.009958881
0.34855878 -0.37962502 -0.009990198
0.35033134 -0.3819595 -0.010550618
0.35099396 -0.38366657 -0.010867139
0.35037115 -0.3846285 -0.010898838
0.35140488 -0.38657245 -0.011300393
0.35326087 -0.38902214 -0.011887874
0.35262954 -0.38999724 -0.011920009
0.35151118 -0.39067718 -0.011842587
0.35145944 -0.392004 -0.012005171
0.3501999 -0.39259315 -0.011895307
0.34956965 -0.39356655 -0.011927386
0.34768283 -0.39375564 -0.011673869
0.34580466 -0.39393878 -0.011420855
0.34517965 -0.39490408 -0.011452667
0.3428963 -0.3948116 -0.011104655
0.34061992 -0.39470837 -0.01075628
0.3400019 -0.39566287 -0.010787735
0.33711848 -0.395141 -0.010296294
0.334658 -0.39487565 -0.009900025
0.33220226 -0.3945961 -0.009502629
0.33159688 -0.3955311 -0.009533441
0.3291556 -0.39523512 -0.009136068
0.3267194 -0.39492524 -0.0087376665
0.3261219 -0.3958481 -0.00876808
0.3237028 -0.39552364 -0.008370313
0.32148862 -0.39532295 -0.0080186045
0.3208985 -0.39623433 -0.0080486415
0.31849855 -0.39588028 -0.0076499013
0.31630468 -0.3956537 -0.007297851
0.3141153 -0.39541456 -0.006944852
0.31353605 -0.39630914 -0.006974332
0.31116247 -0.3959139 -0.006574194
0.30859748 -0.39536238 -0.0061258236
0.30802652 -0.39624417 -0.0061548827
0.305673 -0.39581808 -0.00575374
0.30332285 -0.39537656 -0.005351112
0.30275974 -0.39624622 -0.0053797727
0.30042386 -0.3957884 -0.0049771536
0.29809588 -0.39531848 -0.0045741485
0.29557958 -0.3946876 -0.004122768
0.2950287 -0.39553842 -0.0041508083
0.29291594 -0.39518774 -0.0037947847
0.290422 -0.39452565 -0.0033426934
0.28987896 -0.39536437 -0.0033703332
0.28778267 -0.394984 -0.0030129266
0.28569487 -0.394594 -0.0026555392
0.28515878 -0.39542198 -0.002682825
0.28308132 -0.39501575 -0.0023248647
0.28120315 -0.39475378 -0.0020147602
0.27913925 -0.39432672 -0.0016561256
0.27861318 -0.3951392 -0.0016829012
0.27675083 -0.3948531 -0.0013720249
0.27470523 -0.39440086 -0.0010128618
0.2741857 -0.39520326 -0.0010393049
0.2725274 -0.39505085 -0.0007756243
0.27049825 -0.39457297 -0.00041559202
0.26998484 -0.39536595 -0.00044172493
0.26834157 -0.39519295 -0.0001776102
0.26651564 -0.39485016 0.00013516843
0.2646958 -0.39449793 0.0004482783
0.26419106 -0.39527744 0.00042258963
0.26238132 -0.3949119 0.0007359134
0.26057664 -0.39453605 0.0010498053
0.260078 -0.39530614 0.0010244272
0.2584669 -0.39508107 0.001290486
0.25667793 -0.39468315 0.001604904
0.2548941 -0.39427495 0.0019198806
0.25440422 -0.39503157 0.0018949463
0.2528131 -0.39477766 0.002161769
0.25122797 -0.39451638 0.0024286406
0.25074333 -0.3952649 0.0024039727
0.24916606 -0.39499152 0.0026712473
0.24759315 -0.3947093 0.0029390173
0.24711372 -0.39544973 0.0029146157
0.24554782 -0.39515457 0.0031830117
0.24398798 -0.39485207 0.0034514547
0.2424334 -0.39454156 0.0037201503
0.2419618 -0.3952699 0.0036961474
0.24041595 -0.3949481 0.0039650127
0.23887444 -0.39461738 0.004234373
0.23840807 -0.39533767 0.0042106365
0.23705134 -0.39517108 0.0044317455
0.23552339 -0.39482173 0.0047015026
0.23506182 -0.39553463 0.0046780095
0.2337164 -0.39535046 0.0048997058
0.23202497 -0.39480177 0.005219104
0.23068903 -0.39460272 0.005441315
0.23023489 -0.3953041 0.0054181996
0.22873275 -0.3949152 0.005689231
0.2274081 -0.39469856 0.005912036
0.22695874 -0.39539257 0.005889165
0.22529577 -0.3948003 0.0062099677
0.22389743 -0.39447433 0.0064576464
0.22345352 -0.39515993 0.0064350525
0.22197627 -0.39472988 0.006707699
0.22050366 -0.3942911 0.0069807833
0.21886669 -0.39365888 0.0073028747
0.21843106 -0.39433172 0.007280702
0.21688792 -0.39377907 0.00757877
0.21535051 -0.39321774 0.007877114
0.21492054 -0.39388183 0.007855229
0.21339034 -0.39330593 0.008154379
0.21178208 -0.39262635 0.008478323
0.21135798 -0.39328134 0.008456738
0.20975888 -0.3925876 0.008781148
0.20824957 -0.39198112 0.009081144
0.20674591 -0.39136586 0.00938144
0.20633054 -0.39200738 0.0093602985
0.20475157 -0.39128038 0.00968601
0.20326307 -0.39064386 0.009986799
0.20285359 -0.3912763 0.009965958
0.20145522 -0.3907244 0.010242623
0.20006295 -0.39016545 0.010519294
0.19965869 -0.39078978 0.010498718
0.19827345 -0.39021772 0.010776033
0.197138 -0.3899377 0.010979115
0.19576436 -0.3893527 0.011256382
0.19536729 -0.38996598 0.011236171
0.19432233 -0.38976976 0.01141518
0.19312043 -0.3893665 0.011643852
0.1927273 -0.38997373 0.011623842
0.19177258 -0.3898665 0.011778145
0.19082093 -0.38975462 0.011932602
0.19043085 -0.3903571 0.011912747
0.18948466 -0.39023927 0.012067156
0.1884613 -0.3900122 0.012246938
0.18759967 -0.38998723 0.012376995
0.18721415 -0.39058265 0.012357373
0.18635647 -0.3905516 0.012487627
0.18550228 -0.39051774 0.012617725
0.18511938 -0.3911091 0.012598236
0.1842682 -0.39106792 0.012728825
0.1834205 -0.39102387 0.012859275
0.18304019 -0.39161125 0.012839918
0.18227206 -0.3916652 0.012946082
0.18142983 -0.3916103 0.013077123
0.18066716 -0.39165837 0.013183231
0.18029036 -0.39224032 0.013164053
0.17945443 -0.3921756 0.013295422
0.17869747 -0.39221498 0.013401809
0.17832306 -0.39279324 0.013382752
0.17749348 -0.39271882 0.013514433
0.1766657 -0.39263913 0.013646522
0.1762939 -0.39321336 0.013627598
0.17554525 -0.39323738 0.013734733
0.17457545 -0.39293006 0.013916932
0.173757 -0.39283586 0.014049505
0.17338936 -0.39340368 0.014030792
0.17242703 -0.39308232 0.014213685
0.17161556 -0.39297733 0.014346616
0.17125097 -0.39354044 0.014328059
0.1704434 -0.39342928 0.014461211
0.1695658 -0.39320284 0.014619453
0.16920404 -0.39376158 0.014601041
0.16833012 -0.39352667 0.014759831
0.16745916 -0.3932869 0.014918811
0.16659115 -0.3930423 0.015077976
0.166234 -0.39359394 0.015059796
0.16537154 -0.39334375 0.015218863
0.16443905 -0.3929722 0.015403806
0.16408516 -0.39351878 0.0153857935
0.1632293 -0.3932544 0.0155457035
0.16244757 -0.39310083 0.015680492
0.1614563 -0.3925963 0.015891142
0.16110721 -0.39313546 0.015873374
0.16019215 -0.39273822 0.016059041
0.15913823 -0.39209867 0.016296243
0.15879308 -0.39263177 0.016278677
0.15809475 -0.39256996 0.016389411
0.15718701 -0.39214617 0.016577408
0.1568447 -0.39267483 0.016559985
0.15608044 -0.39247987 0.016697513
0.15510967 -0.39192003 0.016912246
0.15427771 -0.39158803 0.017077316
0.15394029 -0.39210916 0.017060142
0.1528399 -0.39129028 0.01732718
0.15207711 -0.3910518 0.017470071
0.15174349 -0.39156708 0.017453091
0.150838 -0.3910598 0.01765147
0.14986843 -0.3904249 0.01787565
0.14953871 -0.39093414 0.017858868
0.14849262 -0.3901392 0.01811485
0.14769162 -0.38977748 0.018279172
0.1467016 -0.389057 0.018517343
0.1463779 -0.38955694 0.018500866
0.14550284 -0.38902864 0.018697465
0.14452384 -0.3882929 0.018935965
0.14420412 -0.38878673 0.018919693
0.143506 -0.38856196 0.019051295
0.1426741 -0.38807297 0.0192365
0.14235735 -0.38856217 0.019220378
0.14115514 -0.38733935 0.019554228
0.13960126 -0.3854117 0.02003026
0.13889903 -0.3851215 0.020170873
0.13859074 -0.38559762 0.020155182
0.13634133 -0.3822287 0.02091849
0.13463771 -0.3799008 0.021467913
0.13434082 -0.38035935 0.021452801
0.13364506 -0.38001332 0.02159962
1.367302 -0.50072503 -0.17962116
1.355174 -0.50196666 -0.17796409
1.3529414 -0.5054147 -0.17807771
1.3340167 -0.5049893 -0.17518471
1.310773 -0.50344676 -0.17149879
1.3086052 -0.50679487 -0.17160913
1.2816296 -0.50415856 -0.1672214
1.2555481 -0.5015879 -0.16297628
1.2534643 -0.5048062 -0.16308235
1.226837 -0.50187635 -0.15870869
1.2026361 -0.49940896 -0.15475897
1.1785793 -0.4968402 -0.1508177
1.1766148 -0.49987438 -0.1509177
1.1552033 -0.49779364 -0.14743653
1.1333158 -0.49546346 -0.1438516
1.13142 -0.49839148 -0.14394808
1.1119968 -0.4965429 -0.14079523
1.0931293 -0.49473572 -0.1377311
1.091294 -0.4975702 -0.13782452
1.0764812 -0.4967434 -0.13549587
1.0628868 -0.49618062 -0.13338426
1.0319943 -0.49054974 -0.1280198
1.0302542 -0.49323738 -0.12810837
0.8736458 -0.45022568 -0.09903219
0.6899731 -0.3981267 -0.0647161
0.6888315 -0.39988983 -0.0647742
0.6642222 -0.39449704 -0.06038283
0.65726626 -0.3943905 -0.059325982
0.64994746 -0.39413205 -0.05819492
0.6488693 -0.3957972 -0.058249794
0.64294803 -0.39592114 -0.057378046
0.63570464 -0.39558747 -0.05624854
0.63464636 -0.397222 -0.056302406
0.62878984 -0.39728126 -0.055431955
0.62232894 -0.3971075 -0.054440573
0.6212891 -0.39871353 -0.0544935
0.6149863 -0.398538 -0.053525593
0.6090448 -0.39844993 -0.052623235
0.6036494 -0.39851674 -0.051822897
0.602636 -0.4000819 -0.051874477
0.59592676 -0.39964044 -0.050811045
0.5906132 -0.39965597 -0.05001633
0.5896181 -0.40119284 -0.050066978
0.58475584 -0.40132684 -0.049355306
0.57860523 -0.40096182 -0.04838558
0.57762676 -0.402473 -0.04843538
0.57234585 -0.4023779 -0.04763116
0.5684446 -0.40277222 -0.047097452
0.56676716 -0.40399173 -0.04700452
0.56580347 -0.40548018 -0.047053568
0.56116897 -0.40554577 -0.04636718
0.5560622 -0.4054001 -0.04558251
0.5551131 -0.406866 -0.04563082
0.5178597 -0.39386505 -0.03835413
0.38687003 -0.34290424 -0.012085679
0.38623315 -0.34388787 -0.012118095
0.37693474 -0.34132484 -0.010390525
0.371039 -0.34010378 -0.00934769
0.36681813 -0.3395418 -0.008641707
0.36621436 -0.3404743 -0.008672439
0.36097172 -0.33943847 -0.0077516227
0.35734168 -0.33905816 -0.0071578543
0.35675249 -0.33996814 -0.007187843
0.35295433 -0.3394803 -0.00655489
0.35075775 -0.33967188 -0.006250436
0.3501778 -0.34056765 -0.006279954
0.34823644 -0.34085488 -0.006026209
0.34654632 -0.3412449 -0.0058235023
0.34529948 -0.34182793 -0.005712357
0.34472558 -0.34271434 -0.0057415687
0.34437194 -0.3437026 -0.005817066
0.34446248 -0.34489974 -0.0059863203
0.34388685 -0.34578878 -0.006015619
0.343747 -0.34688446 -0.0061371224
0.34473556 -0.34852305 -0.0064984458
0.34415603 -0.3494181 -0.0065279426
0.3453656 -0.3511827 -0.006938787
0.3467983 -0.35307086 -0.007399155
0.34780103 -0.35476276 -0.0077695255
0.3472109 -0.3556742 -0.0077995625
0.34838846 -0.35747305 -0.008210052
0.34911683 -0.3590589 -0.008525499
0.3485206 -0.35997972 -0.008555845
0.349023 -0.3614655 -0.008824395
0.34911826 -0.36274925 -0.009005611
0.34851846 -0.3636756 -0.009036138
0.34923843 -0.36529687 -0.00935493
0.34953183 -0.3667027 -0.009581738
0.35002708 -0.36822394 -0.0098538315
0.34942067 -0.36916056 -0.009884697
0.3499247 -0.3707004 -0.010160513
0.35060248 -0.37234467 -0.010475966
0.3499912 -0.37328872 -0.010507078
0.35067698 -0.37495384 -0.010826446
0.3513775 -0.3766382 -0.011150519
0.35076094 -0.37759045 -0.011181901
0.351681 -0.37941664 -0.011557349
0.35261986 -0.38126686 -0.011938728
0.35388064 -0.38331652 -0.012394317
0.35325393 -0.38428444 -0.012426215
0.35390827 -0.38600326 -0.012747848
0.35507596 -0.3880364 -0.013187337
0.3544429 -0.38901412 -0.013219557
0.35501972 -0.39071697 -0.01352749
0.35350463 -0.3911675 -0.013358891
0.35287088 -0.3921463 -0.013391146
0.35222638 -0.3931184 -0.013420922
0.35054317 -0.3934494 -0.013211569
0.34824634 -0.39338937 -0.012859366
0.34761828 -0.39435935 -0.012891331
0.345742 -0.3945419 -0.012633729
0.34324917 -0.3943213 -0.012231249
0.34262767 -0.39528117 -0.012262883
0.3403529 -0.39517534 -0.011908022
0.33767283 -0.39479107 -0.011456181
0.33705917 -0.3957388 -0.011487414
0.33439484 -0.39533606 -0.011035535
0.3319437 -0.39505547 -0.010631507
0.32949758 -0.39476094 -0.010226421
0.32889616 -0.39568982 -0.010257034
0.3264646 -0.39537892 -0.009852003
0.32404077 -0.39505586 -0.009446544
0.3234472 -0.39597264 -0.009476756
0.3212373 -0.39577124 -0.0091192005
0.31883267 -0.3954186 -0.008712779
0.31663474 -0.3951933 -0.00835391
0.31605205 -0.39609325 -0.008383567
0.3136688 -0.39571247 -0.007976689
0.31129107 -0.395318 -0.00756886
0.3107162 -0.39620584 -0.0075981184
0.3083526 -0.3957949 -0.007190261
0.30580017 -0.3952281 -0.0067338315
0.30523357 -0.39610317 -0.006762671
0.30288577 -0.3956582 -0.0063527566
0.3005462 -0.39520136 -0.0059425435
0.2982199 -0.39473647 -0.0055332626
0.29766506 -0.39559337 -0.0055615013
0.2953451 -0.39510626 -0.0051502897
0.29303467 -0.39460832 -0.0047390927
0.2924877 -0.3954531 -0.0047669318
0.29038358 -0.3950881 -0.004403969
0.28828484 -0.3947111 -0.0040402412
0.28774485 -0.39554513 -0.0040677255
0.28565937 -0.3951542 -0.0037041851
0.28357938 -0.3947513 -0.0033399
0.28150773 -0.39433873 -0.0029756161
0.28097817 -0.39515662 -0.0030025695
0.2791073 -0.3948828 -0.0026864305
0.2770514 -0.39444298 -0.002320958
0.2765284 -0.39525077 -0.002347579
0.27467328 -0.3949528 -0.0020306692
0.2726356 -0.3944878 -0.001664656
0.27211913 -0.3952855 -0.0016909444
0.27046755 -0.3951223 -0.0014220772
0.2686349 -0.3947923 -0.0011043577
0.2668072 -0.3944519 -0.0007860376
0.26629943 -0.3952361 -0.00081188086
0.26448086 -0.39488152 -0.0004930802
0.26266837 -0.39451754 -0.00017397018
0.2621667 -0.39529234 -0.00019950332
0.26036426 -0.39491498 0.00011983292
0.25875166 -0.39469203 0.0003906349
0.25825566 -0.39545807 0.00036539
0.25628325 -0.39489102 0.00073488284
0.2546854 -0.39464727 0.0010061748
0.25309277 -0.39439535 0.0012777469
0.25260547 -0.39514795 0.0012529453
0.25102064 -0.3948839 0.0015249193
0.24944186 -0.39461258 0.0017969403
0.2489598 -0.39535707 0.0017724046
0.24738805 -0.39507288 0.002045037
0.2458215 -0.39478052 0.002317954
0.24534468 -0.39551696 0.0022936848
0.243786 -0.39521253 0.0025669895
0.24223252 -0.39490002 0.0028405674
0.24068427 -0.3945794 0.003114415
0.2402153 -0.39530373 0.0030905453
0.23867494 -0.39497104 0.0033647753
0.23713975 -0.39463025 0.0036392955
0.236676 -0.3953465 0.0036156923
0.23532593 -0.39517176 0.0038408518
0.23380338 -0.39481145 0.0041160113
0.23334442 -0.39552027 0.0040926524
0.23182973 -0.39514783 0.0043682046
0.23049577 -0.39494815 0.004594192
0.2289911 -0.39456022 0.004870262
0.22853956 -0.39525762 0.004847279
0.22721691 -0.39504045 0.005073843
0.22572435 -0.39463243 0.0053507076
0.2252776 -0.3953224 0.0053279693
0.22370751 -0.39481097 0.005629911
0.2221431 -0.39429078 0.0059321374
0.22170202 -0.394972 0.0059096874
0.22023132 -0.39453158 0.006187487
0.2186803 -0.3939892 0.0064905854
0.2172203 -0.39353228 0.0067689284
0.21678728 -0.39420107 0.0067468886
0.21525083 -0.39363787 0.0070505077
0.21363474 -0.39297014 0.007379669
0.2132076 -0.39362985 0.007357929
0.21160065 -0.39294794 0.0076875603
0.21000049 -0.39225742 0.008017296
0.20957945 -0.3929077 0.007995865
0.20807138 -0.3922991 0.008301143
0.20656821 -0.39168087 0.00860693
0.20498827 -0.39095718 0.008937947
0.20457596 -0.391594 0.008916961
0.2030879 -0.3909544 0.009223265
0.20168886 -0.3904055 0.009504422
0.20128198 -0.3910339 0.009483713
0.19997124 -0.39057013 0.009740563
0.19858512 -0.3900015 0.010022351
0.1973667 -0.38962352 0.010254207
0.19696702 -0.39024082 0.010233864
0.19567482 -0.38975328 0.010491025
0.19462864 -0.38955876 0.010673189
0.1942331 -0.39016965 0.010653056
0.19295402 -0.3896669 0.010910232
0.19199754 -0.38955978 0.0110675795
0.19160593 -0.3901646 0.011047646
0.19065402 -0.3900504 0.011205235
0.18970698 -0.3899338 0.0113624
0.18868265 -0.38970813 0.011545343
0.18829583 -0.39030558 0.011525655
0.18743382 -0.39027837 0.011658444
0.1866542 -0.3903526 0.011765696
0.18626978 -0.3909463 0.01174613
0.18541594 -0.3909118 0.011878649
0.18448737 -0.3907691 0.012036438
0.18410578 -0.39135844 0.012017016
0.18325692 -0.39131108 0.012150461
0.18248902 -0.39136708 0.012258318
0.18172249 -0.39141864 0.012366558
0.18134439 -0.3920026 0.012347314
0.18065801 -0.39215633 0.012430238
0.17974512 -0.39198688 0.01258916
0.1793694 -0.39256713 0.0125700375
0.17853647 -0.39249775 0.012703957
0.17770694 -0.39242548 0.012837741
0.17733385 -0.3930017 0.012818751
0.17658217 -0.39303032 0.012927738
0.17575735 -0.39294595 0.013062391
0.17486085 -0.39274877 0.013222458
0.17449169 -0.39331895 0.013203668
0.17359973 -0.39311463 0.013363982
0.17271085 -0.39290565 0.013524441
0.17234473 -0.39347112 0.013505807
0.1714596 -0.39325383 0.013666788
0.17072426 -0.39325446 0.013776968
0.17036076 -0.39381585 0.013758467
0.16941106 -0.39347723 0.013944909
0.16853714 -0.39324492 0.01410616
0.16766444 -0.393005 0.014268216
0.16730574 -0.393559 0.014249958
0.16651092 -0.39342728 0.014386268
0.16564736 -0.39317858 0.0145481
0.16529149 -0.3937282 0.014529986
0.1643606 -0.39335734 0.014717801
0.16350374 -0.39309466 0.014880439
0.16315114 -0.3936392 0.014862494
0.16229866 -0.39336914 0.015025438
0.1613793 -0.39297965 0.015213947
0.16046193 -0.39258233 0.015403171
0.16011436 -0.39311916 0.015385481
0.15906122 -0.39247832 0.015626727
0.1584308 -0.39253315 0.015714126
0.1580863 -0.3930652 0.01569659
0.1571127 -0.39252833 0.015912399
0.1563462 -0.39233264 0.016052779
0.15600501 -0.3928596 0.016035413
0.15496889 -0.3921844 0.016278582
0.15420721 -0.39197245 0.016420355
0.15310657 -0.39115822 0.016691277
0.15277134 -0.39167598 0.016674215
0.1520786 -0.39156032 0.01679313
0.1512367 -0.3911712 0.016969971
0.15090424 -0.39168465 0.01695305
0.14987575 -0.3909426 0.017203763
0.14875767 -0.39002284 0.017491024
0.14843 -0.39052892 0.017474346
0.14765158 -0.39020708 0.017632915
0.14670871 -0.38957146 0.017856957
0.14583603 -0.38905254 0.01805529
0.14551365 -0.38955045 0.018038882
0.14450146 -0.38875058 0.018294672
0.14386827 -0.38865235 0.018402386
0.1435492 -0.38914514 0.018386148
0.14265937 -0.3885445 0.018597687
0.14148231 -0.38737717 0.018925985
0.14116803 -0.38786253 0.01890999
0.13965014 -0.3860002 0.019379776
0.13886903 -0.3855552 0.019554766
0.13666451 -0.38228884 0.020310095
0.13636233 -0.38275555 0.020294715
0.13475125 -0.38060665 0.020815734
0.13394989 -0.3800539 0.021007774
0.1336539 -0.38051105 0.02099271
1.3685889 -0.4989567 -0.18370098
1.3663396 -0.50243086 -0.18381548
1.3542188 -0.5036597 -0.18212694
1.3352778 -0.5032568 -0.17918208
1.3330739 -0.5066607 -0.17929426
1.3098456 -0.5050907 -0.175541
1.2828455 -0.502488 -0.17107582
1.2807204 -0.5057702 -0.17118397
1.2546566 -0.50316817 -0.16686179
1.228005 -0.5002716 -0.16241106
1.2037821 -0.49783453 -0.15839167
1.2017792 -0.50092787 -0.15849361
1.1777389 -0.49833003 -0.15448089
1.1563079 -0.49627596 -0.15093826
1.1543773 -0.4992578 -0.15103653
1.1325048 -0.49690115 -0.1473866
1.1130639 -0.49507672 -0.14417803
1.1111989 -0.4979573 -0.14427297
1.0923442 -0.4961275 -0.14115322
1.0775182 -0.49531865 -0.13878308
1.0639119 -0.49477226 -0.13663375
1.0621203 -0.49753928 -0.13672495
1.0312499 -0.49186942 -0.13126457
0.87448424 -0.44907373 -0.10169008
0.87301886 -0.451337 -0.10176466
0.6894847 -0.39899242 -0.06684476
0.6648514 -0.39363253 -0.062377486
0.66375166 -0.39533103 -0.062433455
0.65680027 -0.39521658 -0.061357077
0.6494862 -0.39494964 -0.06020526
0.64355993 -0.39508045 -0.059317708
0.6424905 -0.39673215 -0.059372142
0.6352519 -0.39639005 -0.05822192
0.6293904 -0.3964561 -0.057335734
0.6283408 -0.39807725 -0.057389162
0.62188405 -0.3978961 -0.056379534
0.6155758 -0.39772806 -0.05539429
0.61454546 -0.39931932 -0.055446725
0.6086078 -0.3992245 -0.054527722
0.6032159 -0.39928523 -0.053712513
0.59650064 -0.398852 -0.052630186
0.5954976 -0.40040106 -0.052681237
0.5901875 -0.40041056 -0.051871777
0.5853211 -0.4005502 -0.051147223
0.5843331 -0.40207607 -0.051197514
0.57818663 -0.40170383 -0.050210048
0.5729012 -0.401615 -0.04939139
0.57193065 -0.4031139 -0.04944078
0.5680317 -0.40350407 -0.048896953
0.5663549 -0.40472257 -0.04880155
0.5617165 -0.40479353 -0.048102755
0.5607596 -0.40627143 -0.04815146
0.5556562 -0.40611988 -0.047352336
0.5183639 -0.39317238 -0.03995227
0.51748276 -0.39453328 -0.03999712
0.38659757 -0.34338722 -0.013273225
0.3772898 -0.340837 -0.011516054
0.37666923 -0.34179544 -0.011547639
0.37077776 -0.3405668 -0.010486238
0.36655983 -0.33999968 -0.009767521
0.36131215 -0.33897078 -0.008830731
0.36071718 -0.33988965 -0.008861014
0.3570896 -0.33950496 -0.008256476
0.35328794 -0.33902198 -0.0076124123
0.35270488 -0.3399225 -0.00764209
0.35050964 -0.3401117 -0.0073318775
0.3485668 -0.34040102 -0.00707339
0.34798944 -0.3412927 -0.007102775
0.34630024 -0.34168112 -0.006896076
0.34505397 -0.34226316 -0.006782522
0.34470057 -0.3432511 -0.0068587847
0.34412622 -0.34413818 -0.006888019
0.34421623 -0.34533626 -0.0070596808
0.34407684 -0.34643126 -0.0071827257
0.34350035 -0.34732163 -0.007212068
0.3444876 -0.34896255 -0.0075790817
0.34569922 -0.35072437 -0.007996274
0.34713417 -0.35260943 -0.008463815
0.3465472 -0.353516 -0.008493692
0.34754857 -0.35521027 -0.00886989
0.34872812 -0.3570064 -0.009286715
0.3481345 -0.3579232 -0.009316929
0.34886175 -0.35951102 -0.009637247
0.3493654 -0.36099508 -0.009909751
0.348767 -0.3619193 -0.009940209
0.34886166 -0.3632041 -0.010123999
0.34958312 -0.36482328 -0.010447571
0.34987757 -0.36622772 -0.010677631
0.34927335 -0.3671609 -0.010708383
0.34976766 -0.36868382 -0.010984584
0.35027295 -0.3702219 -0.011264466
0.3496643 -0.37116194 -0.011295443
0.35034096 -0.37280822 -0.011615737
0.35102823 -0.37447125 -0.011939861
0.35041437 -0.37541935 -0.011971107
0.3511137 -0.37710577 -0.012300155
0.35203558 -0.37892953 -0.012681284
0.35297626 -0.38077724 -0.013068436
0.3523534 -0.38173923 -0.013100138
0.35361254 -0.38379177 -0.0135629205
0.35426837 -0.3855085 -0.013889326
0.35363904 -0.3864805 -0.013921358
0.3548051 -0.3885165 -0.014367743
0.3553834 -0.39021736 -0.014680214
0.35474783 -0.39119893 -0.014712563
0.3532335 -0.39164808 -0.014540568
0.35258895 -0.39262027 -0.014570304
0.35090452 -0.39295292 -0.01435698
0.35027298 -0.3939283 -0.014389124
0.34797764 -0.39386564 -0.014030428
0.34609985 -0.39405024 -0.013768076
0.34547442 -0.3950162 -0.013799909
0.3429833 -0.39479262 -0.013390116
0.3407065 -0.39468953 -0.013028921
0.3400885 -0.395644 -0.013060375
0.3374103 -0.39525643 -0.012600404
0.33474344 -0.3948571 -0.01214062
0.33229005 -0.3945796 -0.011729477
0.3316847 -0.39551455 -0.011760289
0.3292403 -0.39521703 -0.011347882
0.3268065 -0.3949092 -0.010935737
0.32620898 -0.39583206 -0.010966148
0.32378682 -0.395506 -0.010553383
0.32157496 -0.39530733 -0.010189506
0.32098484 -0.39621875 -0.010219541
0.3185819 -0.39586312 -0.009805799
0.31638548 -0.3956352 -0.009440425
0.31399995 -0.3952575 -0.009026439
0.31342116 -0.3961514 -0.0090558985
0.3110451 -0.39575398 -0.008640755
0.30867925 -0.39534608 -0.008225799
0.3081083 -0.39622787 -0.008254858
0.30555776 -0.39565778 -0.0077903145
0.30320773 -0.39521587 -0.0073732804
0.30264506 -0.3960849 -0.0074019185
0.30030715 -0.3956251 -0.0069843843
0.2979825 -0.39515725 -0.006567812
0.29566032 -0.3946732 -0.0061494787
0.29510942 -0.39552405 -0.006177519
0.29280066 -0.3950231 -0.005759014
0.29069453 -0.3946609 -0.0053897216
0.29015106 -0.39550027 -0.0054173837
0.2880538 -0.39512065 -0.005047151
0.28596637 -0.39473245 -0.0046772887
0.28542984 -0.39556107 -0.004704596
0.28335133 -0.39515552 -0.004333813
0.28128117 -0.39474034 -0.003963038
0.27940857 -0.39446893 -0.003641363
0.27888206 -0.3952821 -0.0036681609
0.27682763 -0.3948396 -0.0032961906
0.2749708 -0.39454406 -0.0029737442
0.2744508 -0.39534715 -0.0030002096
0.27241462 -0.3948795 -0.0026276985
0.27076158 -0.39471835 -0.0023540824
0.2702477 -0.39551198 -0.0023802368
0.26841635 -0.39517966 -0.0020568417
0.26658997 -0.39483693 -0.0017328295
0.26476964 -0.3944848 -0.0014085013
0.2642649 -0.3952643 -0.00143419
0.26245373 -0.39489797 -0.0011093878
0.26064956 -0.39452302 -0.00078451575
0.26015094 -0.39529312 -0.0008098943
0.25853944 -0.39506817 -0.00053421594
0.25656506 -0.39450386 -0.0001584017
0.25496572 -0.39426216 0.00011763261
0.25447583 -0.3950188 9.269831e-05
0.25288427 -0.3947649 0.0003691458
0.25129795 -0.3945029 0.0006458621
0.25081328 -0.39525145 0.00062119414
0.24923562 -0.39497814 0.0008980828
0.24766238 -0.394696 0.0011754616
0.24718295 -0.39543644 0.00115106
0.24561751 -0.39514214 0.0014288515
0.24405733 -0.39483976 0.0017068996
0.24250236 -0.3945293 0.0019852244
0.24203075 -0.39525768 0.001961221
0.24048364 -0.39493507 0.002239941
0.23894177 -0.39460444 0.002518917
0.23847541 -0.39532474 0.0024951803
0.23694134 -0.39498192 0.0027745767
0.23559003 -0.39480892 0.00300369
0.23512845 -0.39552182 0.0029801968
0.23360702 -0.39515948 0.003260233
0.23209085 -0.3947891 0.0035405278
0.23075563 -0.39459115 0.0037704685
0.23030148 -0.39529258 0.0037473533
0.22879791 -0.39490265 0.0040282984
0.22747403 -0.3946872 0.004258816
0.22702467 -0.3953812 0.0042359447
0.22553322 -0.39497122 0.0045176884
0.22396152 -0.394462 0.0048247655
0.22351761 -0.3951476 0.0048021716
0.22195439 -0.39462528 0.0051096776
0.22048222 -0.39418688 0.0053922236
0.21892956 -0.39364678 0.005700457
0.21849392 -0.3943196 0.005678284
0.21703504 -0.39386067 0.005961507
0.21549697 -0.39329973 0.006270261
0.21506679 -0.39396414 0.0062483656
0.213452 -0.39329407 0.0065832147
0.2118433 -0.39261457 0.0069183814
0.21141921 -0.39326957 0.006896796
0.20982036 -0.39257675 0.007232219
0.20831065 -0.39197034 0.0075426344
0.20680587 -0.39135432 0.007853565
0.20639051 -0.39199585 0.007832424
0.20481186 -0.39126986 0.008169129
0.2033222 -0.39063248 0.0084805675
0.20291272 -0.39126492 0.008459725
0.20151478 -0.39071405 0.008745759
0.20020266 -0.39025217 0.009006958
0.1997982 -0.39087686 0.008986372
0.1984132 -0.39030626 0.0092730345
0.19719571 -0.3899266 0.009508952
0.19590214 -0.38944095 0.009770459
0.19550484 -0.39005455 0.009750238
0.19445941 -0.38985872 0.009935656
0.19317897 -0.38935784 0.010197165
0.19278581 -0.38996506 0.010177154
0.19183 -0.38985676 0.010337351
0.19087723 -0.38974375 0.010497711
0.19048713 -0.39034623 0.010477855
0.18954074 -0.39022848 0.01063786
0.18851715 -0.39000148 0.010824056
0.1876544 -0.3899753 0.01095922
0.1872689 -0.39057073 0.010939598
0.18648973 -0.3906441 0.011048885
0.18563515 -0.39061064 0.011183767
0.18525203 -0.39120233 0.011164267
0.18432413 -0.39105847 0.011324896
0.18347451 -0.39101213 0.011460715
0.18309422 -0.3915995 0.011441358
0.1823268 -0.39165464 0.011551251
0.18156072 -0.39170536 0.011661525
0.18087386 -0.3918598 0.011746038
0.18049663 -0.3924424 0.011726838
0.17958437 -0.39227182 0.011888598
0.1787507 -0.39220345 0.012024889
0.17837629 -0.3927817 0.012005833
0.17754732 -0.39270842 0.01214205
0.17679504 -0.3927379 0.012253017
0.17642303 -0.39331245 0.012234083
0.17559876 -0.39322707 0.012371177
0.17470291 -0.39302877 0.012534089
0.17381008 -0.39282563 0.012697168
0.17344244 -0.39339346 0.012678456
0.17255421 -0.39318332 0.012841764
0.1716682 -0.39296725 0.0130055165
0.1713036 -0.39353034 0.01298696
0.17056875 -0.3935301 0.0130991815
0.16961804 -0.39319286 0.013288775
0.16925628 -0.3937516 0.013270363
0.16838302 -0.3935181 0.013434465
0.16751097 -0.39327705 0.013599372
0.16671541 -0.39314634 0.013738062
0.16635802 -0.3936983 0.013719872
0.16549511 -0.39344847 0.013884547
0.16456321 -0.39307895 0.014075521
0.1642091 -0.39362586 0.0140574975
0.16335289 -0.39336205 0.01422299
0.16249955 -0.39309317 0.01438871
0.16157916 -0.39270505 0.014580386
0.16122985 -0.39324453 0.014562607
0.16031323 -0.39284593 0.014755091
0.15925884 -0.39220682 0.015000301
0.15891346 -0.39274025 0.014982722
0.1582834 -0.39279443 0.015071778
0.15730868 -0.39225906 0.015291155
0.15696616 -0.39278808 0.015273721
0.15620023 -0.3925914 0.015416584
0.15516284 -0.3919179 0.015663728
0.15440041 -0.39170703 0.01580793
0.15406276 -0.3922285 0.015790744
0.15296315 -0.39141244 0.01606619
0.15226975 -0.3912977 0.016187178
0.15193567 -0.39181367 0.016170172
0.15109445 -0.3914233 0.016350051
0.15006468 -0.39068305 0.01660484
0.14973448 -0.39119303 0.016588034
0.14861748 -0.39027134 0.016880052
0.1478382 -0.38995066 0.01704129
0.14689419 -0.38931662 0.017268987
0.14657001 -0.3898173 0.017252488
0.1456981 -0.38929704 0.01745418
0.14468461 -0.38849893 0.017714104
0.1443645 -0.38899332 0.017697811
0.14373176 -0.38889432 0.017807463
0.14284082 -0.3882952 0.018022455
0.14252368 -0.388785 0.018006312
0.14134784 -0.3876155 0.018339977
0.13982764 -0.3857563 0.018817127
0.13904561 -0.38531262 0.018995006
0.13873698 -0.38578928 0.018979298
0.13653524 -0.382518 0.019746618
0.1349216 -0.3803726 0.02027575
0.13462387 -0.38083243 0.020260595
0.13382325 -0.38027838 0.020455856
1.3716179 -0.5015521 -0.18863426
1.3581314 -0.50249994 -0.1866651
1.3558943 -0.5059549 -0.18677896
1.3345243 -0.5049721 -0.18332681
1.31053 -0.5032559 -0.17936894
1.3083631 -0.5066026 -0.17947923
1.280395 -0.503728 -0.17474909
1.2541845 -0.50112367 -0.17032821
1.2521036 -0.50433755 -0.17043412
1.2262976 -0.5016108 -0.16605973
1.2026789 -0.49929094 -0.16207957
1.1787914 -0.4967673 -0.15803045
1.176827 -0.4998013 -0.15813044
1.1571946 -0.49819034 -0.15486446
1.1351492 -0.49582583 -0.15112281
1.1332507 -0.49875805 -0.15121944
1.112365 -0.4965181 -0.1476747
1.0940881 -0.49487597 -0.14461513
1.0922515 -0.49771234 -0.1447086
1.0781587 -0.4970924 -0.14243583
1.0620365 -0.4958146 -0.13975981
1.0268544 -0.48894632 -0.13337518
1.0251237 -0.49161923 -0.13346326
0.8547583 -0.4445516 -0.10070208
0.68325734 -0.39604303 -0.06757198
0.682128 -0.3977873 -0.067629464
0.6645202 -0.39450896 -0.06445538
0.657487 -0.39437982 -0.06334518
0.65061474 -0.39426145 -0.062261432
0.64953566 -0.395928 -0.06231635
0.6427659 -0.3957844 -0.061245173
0.6359243 -0.3955796 -0.060154643
0.6348658 -0.39721432 -0.060208518
0.6288907 -0.39723548 -0.059282824
0.62247103 -0.397076 -0.058263924
0.62143123 -0.398682 -0.058316853
0.615069 -0.39848706 -0.057302155
0.6087586 -0.39827338 -0.056292996
0.6028916 -0.39817652 -0.05536834
0.6018799 -0.39973912 -0.055419832
0.59563017 -0.3994572 -0.054410994
0.5898489 -0.3993055 -0.053492334
0.5888555 -0.40083978 -0.053542893
0.58358824 -0.40082434 -0.052722324
0.57825696 -0.40075544 -0.05188464
0.5772794 -0.40226522 -0.051934395
0.5720066 -0.4021721 -0.05110257
0.56763107 -0.4023865 -0.050451282
0.56558746 -0.4034634 -0.050277546
0.56462616 -0.4049481 -0.050326474
0.56261253 -0.40602502 -0.050157417
0.5566863 -0.40556422 -0.049174946
0.55573624 -0.40703157 -0.049223308
0.53670424 -0.4012963 -0.045499716
0.39086524 -0.3444556 -0.015244464
0.39022103 -0.34545055 -0.0152772525
0.37675524 -0.3411975 -0.012616624
0.3704788 -0.33981904 -0.011457167
0.36598822 -0.33914292 -0.010669032
0.3653862 -0.34007272 -0.0106996745
0.36058187 -0.33922017 -0.009839218
0.35649988 -0.33864522 -0.009128096
0.35591248 -0.3395525 -0.009157995
0.35258296 -0.3392658 -0.0086023
0.3515211 -0.33995432 -0.008529256
0.35093984 -0.34085205 -0.0085588405
0.34853777 -0.34093624 -0.008196815
0.34751573 -0.3416284 -0.008130441
0.34693182 -0.34251624 -0.0081582945
0.34635493 -0.34340727 -0.008187659
0.34600282 -0.34440222 -0.008265841
0.34675807 -0.34591505 -0.008585276
0.3461781 -0.34681073 -0.008614793
0.34647822 -0.3481235 -0.008836775
0.34811327 -0.35008115 -0.009352339
0.3475273 -0.35098612 -0.009382164
0.34943217 -0.3531012 -0.009960686
0.35086912 -0.3550069 -0.010438526
0.3519169 -0.3567367 -0.010832403
0.35131884 -0.35766035 -0.010862842
0.35248423 -0.35946894 -0.011285512
0.35294673 -0.36093622 -0.011553372
0.35234308 -0.3618685 -0.011584095
0.35265908 -0.36327347 -0.01182086
0.35294154 -0.3646686 -0.012051105
0.35233432 -0.36560643 -0.01208201
0.35242572 -0.36691198 -0.012270601
0.35313743 -0.36855236 -0.012600301
0.35297897 -0.36973852 -0.012734116
0.3523668 -0.370684 -0.012765274
0.35307553 -0.3723467 -0.013097497
0.3535472 -0.37389085 -0.0133770425
0.3529302 -0.3748438 -0.013408447
0.35426143 -0.3768794 -0.01388722
0.35515767 -0.378688 -0.01426807
0.3545336 -0.37965184 -0.014299832
0.35606837 -0.38184297 -0.014830996
0.3571646 -0.38380152 -0.015262958
0.3575765 -0.38538006 -0.015537817
0.35694242 -0.3863594 -0.015570091
0.35860234 -0.38868275 -0.016138373
0.357451 -0.3893668 -0.016050823
0.35681322 -0.3903518 -0.016083283
0.35673237 -0.3916704 -0.016246844
0.3552679 -0.3921589 -0.016084528
0.3546307 -0.39314303 -0.01611696
0.35314322 -0.39360633 -0.015947688
0.35125327 -0.39381373 -0.015681703
0.34895623 -0.39375678 -0.01531713
0.3483269 -0.39472875 -0.015349162
0.34604186 -0.3946567 -0.014984449
0.34334373 -0.39430714 -0.014518481
0.34272224 -0.395267 -0.014550114
0.34023717 -0.39502612 -0.014131768
0.33776024 -0.3947733 -0.013713086
0.3371466 -0.39572105 -0.013744319
0.33448175 -0.39531848 -0.013276442
0.3318254 -0.39490232 -0.012808063
0.32938197 -0.3946091 -0.012389192
0.32878098 -0.39553732 -0.012419783
0.3265505 -0.3953621 -0.012049774
0.32392552 -0.39490235 -0.011580448
0.32333237 -0.39581847 -0.011610637
0.32091814 -0.39547527 -0.011189641
0.3187156 -0.39526188 -0.01081886
0.31651798 -0.39503625 -0.010447225
0.3159357 -0.39593554 -0.010476859
0.3133498 -0.3954102 -0.010004847
0.31117246 -0.39515772 -0.009632773
0.31059805 -0.3960449 -0.009662011
0.308234 -0.39563316 -0.009239647
0.30567917 -0.39506418 -0.008766636
0.30511305 -0.39593858 -0.008795453
0.30296507 -0.39564115 -0.008421932
0.30042946 -0.39503863 -0.007947432
0.29829633 -0.39471835 -0.0075731617
0.2977415 -0.39557523 -0.0076013994
0.29542416 -0.3950906 -0.007176566
0.29311305 -0.3945927 -0.0067509143
0.29256606 -0.39543748 -0.0067787534
0.2904613 -0.39507246 -0.0064029237
0.28836343 -0.3946966 -0.0060267188
0.2878234 -0.3955306 -0.006054204
0.28573722 -0.39513963 -0.0056777904
0.28365797 -0.3947378 -0.005301002
0.28177556 -0.39447773 -0.004973742
0.28124556 -0.39529625 -0.005000718
0.27918342 -0.39486825 -0.0046230974
0.2771269 -0.3944285 -0.0042447792
0.2766039 -0.39523628 -0.004271399
0.27474833 -0.39493835 -0.0039432566
0.27271008 -0.39447337 -0.0035644178
0.2721936 -0.39527106 -0.0035907063
0.27054167 -0.39510795 -0.0033122129
0.268521 -0.3946183 -0.0029328046
0.26688042 -0.39443776 -0.0026537424
0.26637268 -0.39522195 -0.0026795857
0.2645537 -0.3948675 -0.0023495804
0.2627417 -0.39450446 -0.00201951
0.26224005 -0.39527923 -0.002045043
0.26043627 -0.3949012 -0.0017142338
0.25882322 -0.39467824 -0.0014338008
0.25832725 -0.39544427 -0.0014590452
0.25653824 -0.39504334 -0.0011274825
0.25475696 -0.39463443 -0.00079605525
0.25334695 -0.39454988 -0.0005656523
0.2528592 -0.39530313 -0.00059047673
0.25109142 -0.39487123 -0.00025807906
0.24969399 -0.39476928 -2.7303504e-05
0.2492115 -0.39551446 -5.186155e-05
0.24763893 -0.395231 0.00023037792
0.24607071 -0.39493862 0.00051312824
0.24559346 -0.39567572 0.000488837
0.24385531 -0.3952002 0.0008224514
0.24248053 -0.39506108 0.0010546758
0.24093057 -0.39474034 0.0013383743
0.24046117 -0.3954653 0.0013144827
0.23874226 -0.3949581 0.0016493411
0.23738395 -0.3947933 0.0018824389
0.23691976 -0.3955102 0.0018588136
0.23539256 -0.39515895 0.0021430538
0.23404554 -0.39497656 0.0023767385
0.23358616 -0.39568606 0.0023533572
0.23207064 -0.39531434 0.0026385165
0.23056234 -0.39493662 0.0029233561
0.22905733 -0.39454877 0.0032090307
0.22860578 -0.39524615 0.0031860475
0.22728178 -0.395028 0.0034209362
0.22578883 -0.39462003 0.0037074266
0.2253421 -0.39531 0.0036846881
0.22385806 -0.39489108 0.003971264
0.22229303 -0.3943713 0.0042838953
0.22185172 -0.39505288 0.0042614336
0.22038043 -0.39461282 0.004548844
0.2188288 -0.39407092 0.0048623504
0.21728343 -0.39352095 0.0051759547
0.2168504 -0.39418975 0.005153915
0.21531294 -0.39362594 0.0054681385
0.21378045 -0.39305267 0.0057828533
0.2133531 -0.3937127 0.005761102
0.21174616 -0.39303198 0.006101742
0.21014532 -0.39234185 0.0064426847
0.20972407 -0.39299247 0.006421244
0.20813175 -0.3922875 0.0067628566
0.20662819 -0.39166933 0.007079071
0.20504858 -0.39094666 0.007421066
0.20463625 -0.39158347 0.00740008
0.20322977 -0.39104122 0.007691078
0.20183015 -0.3904927 0.007981836
0.20142305 -0.39112145 0.007961116
0.20003048 -0.39055997 0.008252516
0.19872504 -0.39008987 0.008518168
0.19742528 -0.38961348 0.008783779
0.1970256 -0.39023077 0.008763436
0.19573304 -0.38974333 0.009029407
0.19468662 -0.38954887 0.009217989
0.19429107 -0.39015976 0.009197856
0.19308957 -0.38975525 0.009438597
0.19213356 -0.38964963 0.009601267
0.19174172 -0.39025483 0.009581323
0.19071034 -0.39003956 0.009770347
0.18976218 -0.38992184 0.009933409
0.18881705 -0.38979942 0.0100966375
0.18843001 -0.39039716 0.010076939
0.18756855 -0.39037156 0.010214231
0.18663085 -0.3902377 0.010377822
0.18624665 -0.39083108 0.010358267
0.18539283 -0.39079624 0.010495606
0.1846189 -0.39086136 0.01060717
0.1842371 -0.39145106 0.010587737
0.18338954 -0.39140642 0.01072541
0.18262045 -0.39146167 0.010837544
0.18177707 -0.39140812 0.010975755
0.18139897 -0.3919921 0.01095651
0.18063639 -0.39203972 0.0110686505
0.17972347 -0.39186996 0.011233186
0.17934798 -0.39244992 0.011214075
0.1785905 -0.39248735 0.011326784
0.17775998 -0.39241394 0.011465652
0.17738688 -0.39299017 0.011446662
0.17663507 -0.39301884 0.011559663
0.17581086 -0.39293566 0.01169885
0.17483899 -0.39262858 0.011890898
0.17447004 -0.3931984 0.011872119
0.17365201 -0.39310324 0.012011947
0.17276289 -0.3928943 0.012178022
0.17239676 -0.39345977 0.0121593885
0.17158547 -0.39335412 0.01229957
0.17070457 -0.39313495 0.012465737
0.1703413 -0.393696 0.012447246
0.16939074 -0.39335588 0.012640396
0.16858914 -0.39323494 0.0127811115
0.16764511 -0.3928846 0.012974602
0.16728663 -0.39343828 0.012956356
0.16649097 -0.3933049 0.013097812
0.16562746 -0.393056 0.013265246
0.16527182 -0.3936053 0.013247144
0.16433994 -0.39323267 0.01344173
0.16355474 -0.39308506 0.013583467
0.16320215 -0.39362964 0.013565521
0.16235058 -0.39336142 0.013733674
0.16142993 -0.3929703 0.0139289815
0.16051236 -0.39257312 0.014124623
0.16016479 -0.39310992 0.014106932
0.1591128 -0.39247164 0.014355665
0.15848258 -0.39252704 0.0144461915
0.1581381 -0.3930591 0.0144286575
0.15716293 -0.39252016 0.014652191
0.15640055 -0.39233187 0.014795808
0.15605934 -0.39285886 0.014778442
0.15509045 -0.39230058 0.015003577
0.15432955 -0.39209107 0.015149799
0.1531613 -0.39116 0.015455708
0.15282604 -0.3916778 0.015438644
0.15213479 -0.39156517 0.015561105
0.1513056 -0.39119923 0.015738837
0.15097308 -0.39171278 0.015721912
0.15000401 -0.39107874 0.01595719
0.14889596 -0.3901788 0.01624959
0.148568 -0.39068532 0.016232897
0.14778702 -0.39036024 0.016397681
0.14679821 -0.3896413 0.016647365
0.14598978 -0.3892428 0.016826225
0.14566705 -0.38974124 0.016809799
0.14471082 -0.38904852 0.017050922
0.14403786 -0.3888772 0.01717838
0.14371839 -0.38937062 0.01716212
0.14287369 -0.3888584 0.017361805
0.14171723 -0.38773355 0.017691761
0.1414023 -0.3882199 0.017675731
0.13985209 -0.38629797 0.018173348
0.13908972 -0.38589212 0.01834603
0.13680786 -0.38247722 0.01915675
0.13650535 -0.38294446 0.019141354
0.13493428 -0.38087812 0.019661494
0.13413528 -0.38033232 0.01985856
0.13383879 -0.38079023 0.019843468
1.3941439 -0.50043714 -0.19617325
1.3777658 -0.50085336 -0.19363986
1.3755014 -0.5043507 -0.1937551
1.3577985 -0.5043383 -0.19095422
1.3348838 -0.5030316 -0.18715407
1.3326812 -0.5064336 -0.18726617
1.3077049 -0.5044504 -0.1830485
1.2801237 -0.5017036 -0.17831558
1.2780038 -0.5049777 -0.17842348
1.252368 -0.5024741 -0.17403106
1.2275997 -0.5000409 -0.16978535
1.2032238 -0.49756545 -0.16559596
1.2012224 -0.50065655 -0.16569783
1.1779615 -0.49825975 -0.16169539
1.1583724 -0.49668896 -0.15838537
1.1564387 -0.4996756 -0.15848379
1.1335813 -0.49706337 -0.15451606
1.1131287 -0.49496958 -0.15099865
1.1112639 -0.49784958 -0.15109356
1.09392 -0.49643984 -0.14816032
1.0804356 -0.4960129 -0.14597037
1.0604084 -0.49365574 -0.14248459
1.0586234 -0.49641255 -0.14257543
1.0037862 -0.48378327 -0.1321953
0.84836 -0.4413096 -0.10187084
0.84694123 -0.44350082 -0.10194305
0.67880166 -0.3957085 -0.06888851
0.66484797 -0.39355284 -0.06639038
0.66374856 -0.39525092 -0.06644634
0.6569136 -0.39517272 -0.06535502
0.649696 -0.39493668 -0.06418182
0.64339745 -0.3949505 -0.06318775
0.6423286 -0.39660135 -0.06324215
0.63547915 -0.39638475 -0.0621298
0.62906545 -0.39627144 -0.061100315
0.62801665 -0.39789128 -0.0611537
0.621593 -0.39772025 -0.060114846
0.6152294 -0.39753282 -0.059083253
0.6142 -0.3991227 -0.059135646
0.6078931 -0.39890006 -0.05810825
0.60202456 -0.3987931 -0.057165824
0.59534997 -0.3983703 -0.05605321
0.5943493 -0.39991572 -0.056104142
0.58851206 -0.39973304 -0.055156425
0.5832934 -0.39973974 -0.054332145
0.58230937 -0.40125948 -0.054382227
0.57742333 -0.40134397 -0.05362107
0.57261854 -0.40143108 -0.05287312
0.57164884 -0.4029288 -0.05292248
0.56635326 -0.40278938 -0.052066255
0.5630274 -0.4033715 -0.051619146
0.56278145 -0.40512437 -0.051817488
0.56182283 -0.40660495 -0.051866274
0.5540057 -0.4053914 -0.050465975
0.5401431 -0.4017315 -0.047778677
0.5392214 -0.40315497 -0.047825586
0.40499195 -0.3507587 -0.01950991
0.3783182 -0.34120223 -0.013998877
0.37769586 -0.3421634 -0.014030553
0.37008235 -0.34022486 -0.012564342
0.3652039 -0.339379 -0.011678475
0.36039475 -0.33853066 -0.010803229
0.35980168 -0.3394466 -0.010833415
0.35578814 -0.33889285 -0.01012385
0.35335642 -0.33899897 -0.0097537
0.35277337 -0.33989945 -0.009783374
0.3516899 -0.3405792 -0.009704046
0.34975627 -0.34087703 -0.009438603
0.3491768 -0.341772 -0.009468096
0.34881657 -0.3427662 -0.009545681
0.34843433 -0.34375203 -0.009618661
0.34922057 -0.34527716 -0.009949383
0.34863764 -0.34617746 -0.009979053
0.35008073 -0.3480259 -0.010457399
0.35108116 -0.34968132 -0.010839628
0.35049123 -0.35059246 -0.010869654
0.3523947 -0.35269985 -0.011455845
0.3547509 -0.355046 -0.012145927
0.35598233 -0.35686705 -0.01258709
0.35537815 -0.35780016 -0.01261784
0.3561498 -0.35941526 -0.012958435
0.3567502 -0.36095583 -0.013261856
0.35614094 -0.36189678 -0.013292867
0.3563397 -0.3632481 -0.013507183
0.35658664 -0.3646306 -0.013733328
0.35597408 -0.36557668 -0.013764505
0.35560936 -0.36665162 -0.013852316
0.35587332 -0.36805817 -0.014084409
0.35679883 -0.36982143 -0.014469383
0.35618097 -0.3707757 -0.014500832
0.3562348 -0.37209046 -0.014687276
0.35717204 -0.37388858 -0.015078823
0.35654968 -0.37484977 -0.015110499
0.3572359 -0.3765297 -0.015446359
0.35986385 -0.37929535 -0.016236182
0.35923228 -0.38027078 -0.016268328
0.36130327 -0.38276505 -0.016933354
0.36252835 -0.3848034 -0.01740293
0.36337763 -0.3866434 -0.017786242
0.36273372 -0.38763788 -0.017819015
0.36227265 -0.38873824 -0.01789502
0.36223727 -0.39008862 -0.018072184
0.36159176 -0.39108557 -0.01810504
0.3596408 -0.39130926 -0.017826816
0.3587813 -0.39217278 -0.017807774
0.35813895 -0.3931649 -0.01784047
0.3564544 -0.39352584 -0.017622964
0.35414228 -0.39349458 -0.017253129
0.35245392 -0.39383167 -0.01703179
0.35181937 -0.39481172 -0.017064087
0.34890294 -0.3943687 -0.01654298
0.3466071 -0.3942948 -0.016169954
0.3459808 -0.3952621 -0.016201831
0.3432839 -0.39490977 -0.01572771
0.3405927 -0.39454207 -0.015252415
0.33997515 -0.3954959 -0.015283849
0.33750287 -0.39524198 -0.014858565
0.33483535 -0.39484277 -0.014382743
0.33237705 -0.3945625 -0.013956108
0.33177167 -0.3954975 -0.01398692
0.32932967 -0.39520207 -0.013560797
0.32669368 -0.39475834 -0.013083946
0.3260966 -0.39568055 -0.013114337
0.32387337 -0.3954901 -0.012737024
0.3214587 -0.3951522 -0.012309476
0.32086903 -0.39606294 -0.012339489
0.31846607 -0.3957068 -0.0119113345
0.3160708 -0.39533845 -0.011482736
0.3136833 -0.39495796 -0.01105373
0.3131054 -0.3958505 -0.011083143
0.31053156 -0.39530954 -0.010602957
0.30836347 -0.39504224 -0.010223957
0.30779338 -0.39592272 -0.010252973
0.30543894 -0.39549497 -0.009822789
0.3030907 -0.39505392 -0.009391792
0.30252844 -0.39592227 -0.009420408
0.30019206 -0.3954631 -0.008988832
0.29806018 -0.39514002 -0.008608012
0.29574028 -0.39465824 -0.008175984
0.29518938 -0.3955091 -0.008204022
0.29307383 -0.39515722 -0.007821884
0.29077283 -0.39464566 -0.007388821
0.29022935 -0.39548507 -0.007416483
0.28813413 -0.3951075 -0.0070340848
0.2860445 -0.3947181 -0.006650973
0.285508 -0.39554673 -0.0066782804
0.28343013 -0.39514223 -0.006294982
0.28155035 -0.39488086 -0.005962368
0.27948472 -0.39445445 -0.0055780434
0.27895823 -0.3952676 -0.0056048413
0.27690315 -0.39482516 -0.005220012
0.27504578 -0.39452955 -0.004886319
0.27452582 -0.39533263 -0.0049127843
0.27267882 -0.395024 -0.004578966
0.2706486 -0.39454624 -0.004193283
0.27013516 -0.39533925 -0.004219416
0.26848996 -0.3951654 -0.0039357455
0.26666313 -0.39482275 -0.0036005145
0.26484242 -0.39447072 -0.00326498
0.26433772 -0.39525023 -0.0032906695
0.26252708 -0.39488485 -0.002954921
0.26072153 -0.3945092 -0.0026185843
0.2602229 -0.3952793 -0.002643962
0.25861192 -0.39505517 -0.002358892
0.256822 -0.39465737 -0.002022027
0.25522095 -0.3944156 -0.0017361495
0.2547306 -0.39517286 -0.0017611062
0.2531383 -0.39491978 -0.0014750684
0.25155196 -0.3946593 -0.0011889867
0.25106686 -0.3954085 -0.001213677
0.24948756 -0.3951352 -0.00092696113
0.2479135 -0.39485377 -0.00063997885
0.24743362 -0.3955949 -0.0006644028
0.24586739 -0.39530134 -0.000377022
0.24430639 -0.39499968 -8.936727e-05
0.24275061 -0.39469 0.00019853884
0.24227858 -0.39541906 0.00017451351
0.24073064 -0.3950972 0.00046283784
0.23918796 -0.3947673 0.0007514173
0.23872115 -0.39548826 0.00072765833
0.2371863 -0.39514622 0.001016644
0.2358342 -0.3949739 0.0012537559
0.23537219 -0.39568746 0.0012302405
0.23384997 -0.39532593 0.00151987
0.23233297 -0.3949563 0.0018097645
0.230997 -0.39475906 0.0020477045
0.2305424 -0.39546117 0.0020245668
0.22903803 -0.39507195 0.002315112
0.2275389 -0.39467472 0.0026059167
0.22708954 -0.39536875 0.0025830453
0.22577077 -0.3951421 0.0028222408
0.22411217 -0.39454192 0.0031657328
0.22366804 -0.39522785 0.0031431278
0.2221898 -0.39479828 0.003435011
0.22063084 -0.39426735 0.0037533706
0.21907876 -0.39372897 0.0040716506
0.2186429 -0.39440215 0.004049466
0.21726747 -0.3940365 0.0043164287
0.21564414 -0.3933824 0.004661641
0.21521372 -0.39404714 0.004639734
0.21359894 -0.39337826 0.004985595
0.21190585 -0.39260432 0.0053580445
0.21148176 -0.39325932 0.0053364593
0.2100491 -0.39275765 0.005630887
0.20845477 -0.39205536 0.005978031
0.20695013 -0.39144066 0.006299139
0.20653453 -0.3920825 0.006277987
0.20503761 -0.39145377 0.0065997755
0.20346579 -0.39072102 0.0069474806
0.2030561 -0.3913538 0.006926628
0.2016568 -0.3908024 0.007222502
0.20026276 -0.390243 0.0075186426
0.19985828 -0.39086768 0.007498056
0.19847208 -0.3902962 0.0077945925
0.19733587 -0.39001662 0.008012088
0.19596037 -0.38943103 0.008308833
0.19556308 -0.39004463 0.008288613
0.19451828 -0.38984996 0.008480161
0.19331643 -0.3894483 0.008724564
0.19292305 -0.39005584 0.008704542
0.19188742 -0.38984704 0.008896553
0.19085526 -0.38963285 0.009088752
0.19046538 -0.39023498 0.009068908
0.18959683 -0.3902177 0.009208586
0.18857296 -0.3899907 0.009401199
0.18771097 -0.38996583 0.009540868
0.18732545 -0.39056125 0.009521246
0.18646824 -0.3905314 0.009660825
