ply
format ascii 1.0
element vertex 1328
property float x
property float y
property float z
end_header
0.011488237 -0.20834997 -0.24203812
0.011048433 -0.20782962 -0.24031065
0.011094698 -0.20851989 -0.23985697
0.010723542 -0.20816049 -0.2383194
0.010282514 -0.2076182 -0.23660761
0.010328197 -0.20829982 -0.23615964
0.009920794 -0.20783125 -0.23454598
0.009513104 -0.20735477 -0.23293874
0.009558206 -0.2080277 -0.23249646
0.009183993 -0.20762622 -0.23098534
0.008739934 -0.20703863 -0.22930336
0.008330224 -0.20653185 -0.2277161
0.008374454 -0.20719177 -0.22728238
0.007963859 -0.20667197 -0.22570363
0.007517669 -0.20605241 -0.22404271
0.0075612958 -0.20670334 -0.22361489
0.007149238 -0.20616156 -0.22205062
0.0067366087 -0.20561115 -0.22049208
0.0067796544 -0.20625342 -0.22006996
0.0064010257 -0.20578209 -0.2186061
0.006057019 -0.20539589 -0.21723408
0.0056773378 -0.20490889 -0.21578053
0.005719603 -0.2055395 -0.21536607
0.0053391308 -0.20504054 -0.21392044
0.0049937004 -0.20462891 -0.21256658
0.0050354516 -0.20525184 -0.21215717
0.0046540187 -0.20473419 -0.21072531
0.004272096 -0.20420864 -0.20929885
0.0043133125 -0.20482357 -0.20889467
0.0039303126 -0.20428531 -0.20747542
0.0035821863 -0.20383556 -0.2061459
0.0031981296 -0.20328163 -0.20473693
0.003238563 -0.20388487 -0.20434044
0.0027836063 -0.2031262 -0.20277378
0.0024687804 -0.20274627 -0.20154464
0.0025086782 -0.20334154 -0.20115341
0.0021229666 -0.20275696 -0.1997666
0.0018073573 -0.20236072 -0.19854975
0.0018467634 -0.20294866 -0.19816333
0.0014943815 -0.20244154 -0.19686943
0.0011770596 -0.20202671 -0.19566242
0.0008596618 -0.20160624 -0.19446068
0.000898375 -0.20218386 -0.19408105
0.0006512074 -0.2019537 -0.19304791
0.0004032285 -0.20171693 -0.19201729
0.00044158316 -0.2022892 -0.19164118
0.00022926737 -0.2021475 -0.19069774
-5.3495125e-05 -0.20180085 -0.1895992
-1.5497164e-05 -0.20236777 -0.1892266
-0.0001928058 -0.20231663 -0.18837157
-0.000369904 -0.20226282 -0.18752027
-0.0005477426 -0.20220365 -0.18667051
-0.0005101474 -0.20276457 -0.18630184
-0.0006520191 -0.2028049 -0.18553647
-0.0007946152 -0.20284043 -0.18477216
-0.00075724354 -0.20339802 -0.1844057
-0.00090019073 -0.20342849 -0.18364467
-0.0010783414 -0.20335312 -0.18280955
-0.0010412151 -0.20390703 -0.18244548
-0.0011842268 -0.20393035 -0.18169127
-0.0013274613 -0.20395033 -0.18093927
-0.0014714367 -0.20396547 -0.18018833
-0.0014346476 -0.20451435 -0.17982756
-0.0015784401 -0.204526 -0.17908102
-0.0017224716 -0.20453428 -0.17833667
-0.0016859046 -0.20507987 -0.17797808
-0.0017946447 -0.20518991 -0.17731231
-0.001974902 -0.20508292 -0.17649801
-0.0019385585 -0.20562516 -0.17614162
-0.002084078 -0.20561832 -0.17540477
-0.0022292796 -0.20560974 -0.17467125
-0.0023394998 -0.20570466 -0.17401303
-0.0023034706 -0.20624222 -0.17365973
-0.0024844601 -0.20611817 -0.17285876
-0.0026315271 -0.20609462 -0.17213069
-0.0025957434 -0.20662852 -0.17177978
-0.002705631 -0.20671512 -0.1711316
-0.0029249797 -0.20646274 -0.17026289
-0.0028894423 -0.20699295 -0.16991441
-0.0029639108 -0.207183 -0.16934381
-0.0031839528 -0.20692027 -0.16848192
-0.003295323 -0.20699146 -0.16784155
-0.0032601 -0.207517 -0.16749616
-0.0034449038 -0.2073558 -0.16671282
-0.0036659772 -0.20707798 -0.16586074
-0.0036310442 -0.20759918 -0.1655182
-0.0038165818 -0.2074275 -0.16474159
-0.0040017543 -0.20725381 -0.16396888
-0.004187253 -0.20707594 -0.1631987
-0.0041527227 -0.20759112 -0.16286008
-0.0043759425 -0.2072889 -0.16202143
-0.0046342397 -0.2068715 -0.16111866
-0.0046000443 -0.20738168 -0.16078334
-0.004750541 -0.2073022 -0.16009367
-0.004974196 -0.20698598 -0.15926677
-0.004940269 -0.20749217 -0.15893407
-0.0051644184 -0.20716888 -0.15811174
-0.005389622 -0.20683852 -0.15729107
-0.0056143934 -0.20650588 -0.15647487
-0.005580937 -0.20700505 -0.15614681
-0.005842362 -0.2065481 -0.15526758
-0.0060310247 -0.20632343 -0.154528
-0.0059978818 -0.20681792 -0.154203
-0.0062239547 -0.20646648 -0.15339898
-0.0063762926 -0.20635253 -0.15273435
-0.006343417 -0.20684303 -0.15241197
-0.006571294 -0.20647706 -0.15161325
-0.0067975326 -0.20611283 -0.15082115
-0.007025129 -0.20574048 -0.15003024
-0.006992722 -0.206224 -0.14971244
-0.00710949 -0.20621334 -0.14912634
-0.0072638458 -0.20607582 -0.14847495
-0.007231641 -0.2065563 -0.14815915
-0.007348975 -0.20653832 -0.14757748
-0.0074667665 -0.2065167 -0.14699708
-0.0074347416 -0.2069945 -0.14668304
-0.007735281 -0.2063568 -0.14578466
-0.008036179 -0.20571326 -0.14489026
-0.00822904 -0.20542902 -0.14418879
-0.008197548 -0.20589888 -0.14387996
-0.008427651 -0.20548402 -0.14311874
-0.009022589 -0.20382918 -0.14173265
-0.008991627 -0.20429114 -0.14142904
-0.008855863 -0.20510967 -0.14130452
0.1565312 -0.3234779 -0.8822155
0.15668604 -0.32578802 -0.88069713
0.1522387 -0.3217573 -0.8617018
0.14789571 -0.31778282 -0.8431908
0.14804408 -0.31999648 -0.84173584
0.1439458 -0.31623664 -0.824277
0.13986127 -0.3124149 -0.80695164
0.13605146 -0.3089039 -0.7907376
0.13619101 -0.31098604 -0.78936917
0.13284346 -0.30802974 -0.7749932
0.12919867 -0.30457464 -0.75957817
0.1293331 -0.30658007 -0.7582601
0.12591203 -0.30334672 -0.74378157
0.121501885 -0.29857922 -0.7257191
0.12163059 -0.30049932 -0.7244571
0.117000036 -0.29527175 -0.7057147
0.11310222 -0.2910616 -0.689747
0.10678236 -0.28309223 -0.6650055
0.106900334 -0.2848524 -0.66384864
0.08169064 -0.24761876 -0.5706247
0.054049745 -0.20614327 -0.46906427
0.054130442 -0.20734726 -0.46827295
0.050585985 -0.202868 -0.45440656
0.049426902 -0.20208283 -0.44918942
0.049504187 -0.20323595 -0.44843155
0.048141655 -0.20209144 -0.44252104
0.047021553 -0.20130926 -0.4375029
0.046009507 -0.20067924 -0.43289176
0.04608419 -0.2017935 -0.43215942
0.04520401 -0.20134853 -0.42804563
0.044446774 -0.20108776 -0.4243839
0.04452021 -0.20218343 -0.42366377
0.043822955 -0.20199922 -0.4202359
0.043000143 -0.2015911 -0.4163824
0.043072417 -0.20266947 -0.41567364
0.04231049 -0.20233941 -0.4120572
0.041612007 -0.20210171 -0.40867668
0.040977094 -0.20195839 -0.4055308
0.041047767 -0.20301282 -0.4048378
0.04021775 -0.20251352 -0.40103847
0.039580423 -0.20233193 -0.39791852
0.039649982 -0.20336974 -0.39723644
0.03900867 -0.20316182 -0.39412227
0.038625233 -0.2033952 -0.39190102
0.038693987 -0.20442101 -0.39122683
0.038306195 -0.20463432 -0.38900313
0.038037997 -0.20505327 -0.38719258
0.037470795 -0.20492859 -0.38437882
0.037538566 -0.2059397 -0.38371426
0.036876496 -0.20562555 -0.38059926
0.036791794 -0.20635183 -0.37943077
0.036858954 -0.20735389 -0.37877217
0.02948403 -0.19464144 -0.3533284
0.010935731 -0.16110447 -0.2909077
0.010985009 -0.16183971 -0.2904245
0.009423554 -0.1595633 -0.28462037
0.008456429 -0.15837465 -0.28080314
0.008038393 -0.15820433 -0.27880815
0.0080855535 -0.15890795 -0.27834567
0.007356811 -0.15813318 -0.27534792
0.0072694593 -0.1585724 -0.27445406
0.0073159975 -0.15926675 -0.27399772
0.007163257 -0.1595761 -0.27289554
0.0072147213 -0.16027823 -0.27245688
0.0072611272 -0.16097061 -0.2720018
0.0072413795 -0.16153342 -0.2713341
0.0075477734 -0.1627367 -0.271713
0.0077931876 -0.16382405 -0.27189234
0.007839859 -0.16452041 -0.27143466
0.008147459 -0.16573699 -0.27180642
0.008591066 -0.1672305 -0.2726047
0.008638185 -0.16793351 -0.27214265
0.008947247 -0.16916566 -0.27250636
0.009388936 -0.17067143 -0.27328238
0.0094365 -0.17138109 -0.27281594
0.009812748 -0.17276329 -0.27337706
0.010251225 -0.17427905 -0.27412638
0.010495513 -0.17540093 -0.27426526
0.010543696 -0.1761198 -0.27379277
0.010918611 -0.17751858 -0.27433032
0.011165765 -0.17865604 -0.2744683
0.011214302 -0.17938021 -0.27399236
0.011592121 -0.1807981 -0.27452573
0.011905753 -0.1820859 -0.2748572
0.012540614 -0.18406056 -0.27616316
0.012589943 -0.18479656 -0.27567944
0.013094765 -0.18650785 -0.27657613
0.013863142 -0.18879358 -0.27826148
0.01391326 -0.18954134 -0.27777
0.014746719 -0.1919865 -0.2796324
0.015646078 -0.19458842 -0.28167877
0.01569729 -0.19535248 -0.2811766
0.01673035 -0.1982692 -0.28359953
0.017643278 -0.20093825 -0.28564882
0.018567875 -0.20364769 -0.28771797
0.018620899 -0.20443879 -0.287198
0.019158566 -0.20630893 -0.28810534
0.019621426 -0.20802008 -0.28878477
0.019675048 -0.20882007 -0.28825897
0.019756772 -0.20968337 -0.28781524
0.019571638 -0.20994398 -0.28659415
0.019625118 -0.2107419 -0.28606972
0.01916221 -0.21036401 -0.2840507
0.018820858 -0.21025525 -0.28239122
0.01840595 -0.20997117 -0.2805267
0.018458515 -0.21075545 -0.28001124
0.01803333 -0.21043588 -0.2781291
0.017749002 -0.21043497 -0.27665675
0.01780103 -0.2112112 -0.27614656
0.017452504 -0.21105193 -0.27450064
0.017030625 -0.2107141 -0.272654
0.017082073 -0.21148172 -0.27214947
0.01672864 -0.21129362 -0.27050704
0.016237298 -0.2107722 -0.2684849
0.015743986 -0.21023712 -0.26646626
0.01579445 -0.21099004 -0.2659714
0.015370517 -0.21060756 -0.26415896
0.014943687 -0.2102103 -0.2623464
0.014993526 -0.21095388 -0.26185766
0.014498784 -0.21038064 -0.25986996
0.01400421 -0.20979886 -0.25789168
0.014053334 -0.21053179 -0.25740996
0.013624939 -0.21009831 -0.25562564
0.013195943 -0.20965555 -0.25384754
0.012766309 -0.2092034 -0.25207552
0.012814496 -0.20992234 -0.251603
0.01238393 -0.20945624 -0.2498402
0.011884314 -0.20881085 -0.24789973
0.011931832 -0.20951979 -0.24743377
0.011500347 -0.20903139 -0.24568862
0.011067547 -0.20853192 -0.24394774
0.011114437 -0.20923153 -0.24348792
0.010748675 -0.20888963 -0.24193616
0.010314995 -0.2083691 -0.24021186
0.009948159 -0.20801063 -0.23867115
0.009994198 -0.20869754 -0.23821968
0.009593101 -0.20824152 -0.23659942
0.009157272 -0.2076893 -0.23489587
0.009202709 -0.20836721 -0.23445031
0.00880011 -0.20788915 -0.23284444
0.008431141 -0.20749097 -0.23133259
0.00847602 -0.20816055 -0.23089251
0.008071694 -0.20766038 -0.22929989
0.007598252 -0.20697252 -0.22753768
0.007192725 -0.20645435 -0.22595692
0.007236689 -0.20711029 -0.22552581
0.0068652183 -0.2066712 -0.2240421
0.006423889 -0.20604081 -0.22238855
0.006467272 -0.20668809 -0.22196312
0.0060938257 -0.20622675 -0.2204915
0.0057204408 -0.20575899 -0.21902664
0.005763287 -0.20639826 -0.21860649
0.005354337 -0.20582524 -0.21706307
0.0050138147 -0.20542927 -0.2156964
0.0046382947 -0.20493282 -0.2142493
0.0046803365 -0.20556009 -0.21383703
0.0043391986 -0.20514715 -0.21248418
0.0039278204 -0.20453703 -0.21096551
0.0039693266 -0.2051563 -0.2105585
0.0035920723 -0.20462896 -0.20913343
0.0032143234 -0.20409375 -0.20771371
0.0032552942 -0.20470503 -0.20731196
0.0029114527 -0.20425369 -0.2059837
0.0025317066 -0.20369695 -0.20457526
0.0021175186 -0.20303805 -0.20309101
0.0021576856 -0.20363733 -0.20269713
0.0017770024 -0.20306145 -0.2013031
0.0014655737 -0.20267297 -0.20007962
0.001505248 -0.20326492 -0.19969057
0.0011588127 -0.20276977 -0.19839288
0.00077575445 -0.20216528 -0.19701524
0.00049769523 -0.20185155 -0.1958896
0.0005366543 -0.20243283 -0.19550757
0.00022315879 -0.20201093 -0.19430695
-5.5535023e-05 -0.20168297 -0.19319233
-1.700062e-05 -0.2022579 -0.19281445
-0.00026187982 -0.20201969 -0.19178489
-0.00047131712 -0.20187911 -0.19084089
-0.000433118 -0.20244904 -0.19046631
-0.00067748904 -0.20220175 -0.18944845
-0.00088725984 -0.20205054 -0.18851343
-0.0010623691 -0.20199631 -0.18766053
-0.0010246407 -0.20255922 -0.18729056
-0.0011646835 -0.20260264 -0.18652129
-0.001304958 -0.2026427 -0.18575421
-0.0012674532 -0.20320226 -0.18538643
-0.0014076038 -0.20323867 -0.18462367
-0.0015484722 -0.20327026 -0.183862
-0.0015111914 -0.20382649 -0.18349642
-0.0016874975 -0.20374891 -0.1826608
-0.001828445 -0.20377332 -0.18190594
-0.0019691347 -0.20379584 -0.18115433
-0.0019322106 -0.20434675 -0.18079226
-0.0020742202 -0.2043613 -0.18004176
-0.002215962 -0.20437402 -0.17929457
-0.0021792618 -0.20492157 -0.17893468
-0.0023213346 -0.20492929 -0.17819077
-0.0024630968 -0.2049353 -0.17745018
-0.0024266196 -0.20547953 -0.17709248
-0.0026051232 -0.20536977 -0.17627779
-0.0027132719 -0.2054714 -0.17561533
-0.002855865 -0.2054656 -0.1748823
-0.0028197241 -0.20600481 -0.1745279
-0.0029637287 -0.20599072 -0.17379588
-0.0031068653 -0.20597664 -0.17306836
-0.0030709475 -0.20651253 -0.17271614
-0.003216035 -0.20648845 -0.17198853
-0.0033247827 -0.20657441 -0.1713387
-0.0032890674 -0.20710728 -0.17098847
-0.003469655 -0.20696622 -0.17019442
-0.003614424 -0.20693387 -0.16947678
-0.003795506 -0.2067852 -0.16868782
-0.0037601697 -0.20731242 -0.16834132
-0.003906094 -0.2072696 -0.16762821
-0.0040884344 -0.20710933 -0.16684438
-0.0040533445 -0.20763287 -0.16650029
-0.004271087 -0.20735578 -0.1656504
-0.004454146 -0.20718507 -0.16487332
-0.0044193473 -0.20770428 -0.16453208
-0.0046021966 -0.20752953 -0.16376016
-0.0047866213 -0.20734659 -0.1629883
-0.0050413427 -0.20693536 -0.16208155
-0.0050069904 -0.2074479 -0.16174468
-0.005192169 -0.20725414 -0.1609798
-0.005375622 -0.20706278 -0.16022144
-0.005341538 -0.20757131 -0.15988721
-0.005562488 -0.20725384 -0.15906127
-0.0057830308 -0.20693403 -0.15823975
-0.0057492605 -0.20743789 -0.15790859
-0.0060082125 -0.2069874 -0.15701933
-0.006193766 -0.20677255 -0.15627368
-0.006452702 -0.2063143 -0.15539232
-0.0064194235 -0.2068108 -0.15506598
-0.0066057458 -0.20658512 -0.15432724
-0.0068298485 -0.20623179 -0.15352097
-0.0067968606 -0.20672396 -0.1531975
-0.006947342 -0.20660886 -0.1525334
-0.007206998 -0.206129 -0.15167
-0.0071743005 -0.20661683 -0.15134935
-0.007326786 -0.2064878 -0.15068886
-0.0076224254 -0.20587827 -0.14976928
-0.0077022375 -0.20598613 -0.14924736
-0.007669921 -0.2064683 -0.14893048
-0.007824493 -0.20632263 -0.14827587
-0.007935448 -0.20632116 -0.1477024
-0.007903332 -0.20680034 -0.14738746
-0.008025544 -0.20675783 -0.14679691
-0.008286644 -0.20624271 -0.14596146
-0.008254798 -0.20671783 -0.14564918
-0.008620724 -0.20584004 -0.1446349
-0.008817427 -0.20553344 -0.14392366
-0.009048938 -0.20510478 -0.14315464
-0.0090176305 -0.20557189 -0.14284764
-0.009648348 -0.20376886 -0.14139073
-0.009507416 -0.20460805 -0.14127798
-0.009476442 -0.20507018 -0.14097425
0.15384643 -0.32470074 -0.8812778
0.14945912 -0.320693 -0.8622702
0.14961068 -0.32295433 -0.8607839
0.14532308 -0.31895462 -0.84229225
0.14128007 -0.31521595 -0.8248221
0.14142542 -0.31738463 -0.82339674
0.1373929 -0.3135392 -0.8060895
0.13363168 -0.31000608 -0.78989255
0.13032937 -0.3070671 -0.7755073
0.13046646 -0.3091124 -0.774163
0.12686804 -0.3056362 -0.75876415
0.12349307 -0.30242053 -0.7442762
0.12362496 -0.3043885 -0.74298275
0.11927039 -0.29959562 -0.7249397
0.11470134 -0.2943916 -0.70618474
0.11482669 -0.2962617 -0.70495564
0.110977985 -0.29202914 -0.6890051
0.10473673 -0.28402397 -0.664291
0.07985346 -0.24691531 -0.5710004
0.07995363 -0.24840994 -0.57001805
0.05265052 -0.2067806 -0.4685756
0.049152687 -0.20231919 -0.45469967
0.049230836 -0.20348524 -0.45393327
0.048086796 -0.20269322 -0.44872138
0.04674272 -0.2015558 -0.4428071
0.046819005 -0.20269388 -0.4420591
0.045713406 -0.20190509 -0.43704602
0.04471456 -0.20126908 -0.43243948
0.04384659 -0.20082878 -0.4283232
0.043920603 -0.20193309 -0.4275974
0.04317342 -0.20166774 -0.42393917
0.042486012 -0.2014873 -0.4205093
0.042558912 -0.20257497 -0.41979444
0.041746907 -0.20216194 -0.4159447
0.040995605 -0.20183595 -0.41232607
0.04030693 -0.201602 -0.40894356
0.040378094 -0.20266373 -0.40824574
0.03975168 -0.20251656 -0.40510282
0.0389331 -0.20202163 -0.40130118
0.039003145 -0.20306674 -0.4006143
0.03837432 -0.20288129 -0.3974973
0.037742022 -0.20267683 -0.39438128
0.03781109 -0.2037073 -0.393704
0.037433077 -0.20393822 -0.39148465
0.037051063 -0.20415375 -0.38925982
0.036787122 -0.20457432 -0.38744837
0.03685533 -0.20559196 -0.38677952
0.03629572 -0.20546383 -0.3839684
0.03564286 -0.2051532 -0.38085154
0.035710126 -0.2061568 -0.3801919
0.03562724 -0.20688227 -0.37902403
0.028346058 -0.19420572 -0.3535611
0.028408106 -0.1951315 -0.35295263
0.010081282 -0.16149367 -0.2906093
0.008540066 -0.15922502 -0.28480104
0.0075856936 -0.15804125 -0.2809812
0.0076331724 -0.15874964 -0.2805156
0.007220656 -0.1585768 -0.27852255
0.00650165 -0.15780574 -0.2755228
0.0065482794 -0.15850145 -0.27506554
0.006462511 -0.15893997 -0.27417225
0.0063122683 -0.15925026 -0.27306956
0.0063586705 -0.15994258 -0.27261454
0.0064100698 -0.16064475 -0.27217585
0.0063911453 -0.16120787 -0.27150798
0.006694302 -0.1624099 -0.2718875
0.00674084 -0.16310425 -0.27143115
0.0069839093 -0.16419266 -0.2716097
0.007288256 -0.165408 -0.2719821
0.0073351054 -0.166107 -0.2715227
0.0077740536 -0.16760264 -0.27231935
0.008079854 -0.16883352 -0.2726837
0.00812715 -0.1695392 -0.27221993
0.008564207 -0.17104708 -0.27299434
0.008936383 -0.17242773 -0.27355626
0.009370013 -0.17394164 -0.2743066
0.009418064 -0.17465855 -0.2738354
0.009660062 -0.17578146 -0.27397346
0.010030937 -0.17717868 -0.2745118
0.01007934 -0.17790085 -0.27403718
0.010324168 -0.17903937 -0.2741744
0.010697921 -0.18045571 -0.27470857
0.010746679 -0.18118319 -0.27423045
0.011057227 -0.1824724 -0.27456084
0.01168526 -0.18445016 -0.27586442
0.012184474 -0.18615931 -0.27676228
0.012234109 -0.18689989 -0.27627555
0.012994134 -0.18918942 -0.27795798
0.013817967 -0.19163089 -0.2798223
0.01386861 -0.19238648 -0.2793257
0.014758118 -0.19499288 -0.28136864
0.015779138 -0.197905 -0.28379402
0.015831005 -0.19867885 -0.2832854
0.016733967 -0.20135245 -0.28533122
0.01764847 -0.20406646 -0.28739685
0.018180208 -0.20593432 -0.2883054
0.018233556 -0.20673026 -0.28778228
0.018691683 -0.20844355 -0.28846008
0.018773064 -0.20930673 -0.28801638
0.0188267 -0.210107 -0.2874904
0.01864433 -0.21036638 -0.2862703
0.018187707 -0.20999089 -0.28424996
0.018240843 -0.21078368 -0.28372893
0.017904032 -0.21067287 -0.282071
0.0174945 -0.21038635 -0.28020835
0.01707512 -0.21006899 -0.27832505
0.017127369 -0.21084854 -0.2778127
0.016846899 -0.21084587 -0.27634168
0.016503226 -0.21068847 -0.27469474
0.016554989 -0.21146075 -0.27418715
0.016138537 -0.21112044 -0.2723424
0.015789999 -0.21093424 -0.270699
0.01584118 -0.21169786 -0.2701971
0.015356038 -0.21117361 -0.2681771
0.014868943 -0.21063568 -0.26616064
0.014450735 -0.21025538 -0.26434705
0.014500889 -0.21100368 -0.26385525
0.014079489 -0.21060391 -0.26204455
0.013591313 -0.21003318 -0.26005554
0.013640796 -0.21077146 -0.2595703
0.013152413 -0.21018684 -0.2575942
0.012729754 -0.20975555 -0.2558087
0.012306498 -0.209315 -0.25402942
0.012354996 -0.21003859 -0.25355384
0.01193079 -0.209584 -0.2517837
0.01150596 -0.20912006 -0.25001973
0.011553833 -0.20983432 -0.2495503
0.011060418 -0.20918614 -0.24761195
0.010634664 -0.20869993 -0.24586563
0.010681868 -0.20940419 -0.24540275
0.010254491 -0.20890225 -0.24366377
0.0098936595 -0.20856225 -0.242111
0.009465704 -0.20804392 -0.24038552
0.009512013 -0.20873486 -0.2399314
0.00914984 -0.20837425 -0.23839234
0.008754062 -0.20792027 -0.23677099
0.008799812 -0.20860288 -0.23632234
0.008369401 -0.20804815 -0.2346207
0.007972129 -0.20757213 -0.23301375
0.008017277 -0.20824574 -0.23257102
0.00765296 -0.20784542 -0.2310608
0.0072539602 -0.20734729 -0.2294671
0.006786653 -0.20666178 -0.22770363
0.0068309074 -0.20732203 -0.22726968
0.0064304243 -0.20680158 -0.22569068
0.006063875 -0.20636438 -0.22420596
0.0061075706 -0.20701629 -0.22377749
0.005671658 -0.20638345 -0.22212581
0.005303133 -0.205924 -0.22065318
0.0053462465 -0.20656726 -0.2202304
0.004977509 -0.2060974 -0.21876715
0.004573883 -0.20552641 -0.21722266
0.0042378767 -0.20513217 -0.21585506
0.0042801877 -0.20576344 -0.21544017
0.003909313 -0.20526488 -0.21399468
0.0035726829 -0.20485367 -0.21264093
0.0036144787 -0.20547727 -0.21223107
0.003208137 -0.20486486 -0.21071415
0.0028357955 -0.20433939 -0.20928808
0.0028770335 -0.20495465 -0.20888369
0.0025039301 -0.20441735 -0.2074656
0.0021645906 -0.20396772 -0.20613642
0.0017897655 -0.20341288 -0.20472698
0.0018302203 -0.20401646 -0.20433027
0.0014210625 -0.2033553 -0.20284775
0.0010453004 -0.20278129 -0.20145272
0.0010851973 -0.20337656 -0.20106147
0.000777642 -0.20298633 -0.19983934
0.00043571426 -0.20249291 -0.19854073
0.00047514273 -0.20308118 -0.1981541
9.673741e-05 -0.20247458 -0.19677809
-0.00017783212 -0.20215926 -0.19565366
-0.00048723264 -0.20173892 -0.19445221
-0.00044849707 -0.20231687 -0.19407238
-0.00072370074 -0.20198731 -0.19295895
-0.0009652868 -0.20175037 -0.19192873
-0.0009269317 -0.20232262 -0.19155261
-0.0011336518 -0.20218082 -0.19060954
-0.001374753 -0.20193478 -0.18959102
-0.0013367326 -0.20250204 -0.1892182
-0.0015437868 -0.20234959 -0.18828411
-0.0017165706 -0.20229429 -0.18743205
-0.0018545584 -0.2023385 -0.18666236
-0.0018169408 -0.20289974 -0.18629348
-0.0019552726 -0.2029389 -0.18552709
-0.0020933677 -0.2029761 -0.18476391
-0.0020559737 -0.203534 -0.18439722
-0.0021949073 -0.2035647 -0.18363623
-0.002368753 -0.20348807 -0.18280011
-0.0023316054 -0.20404232 -0.18243584
-0.0024706216 -0.20406581 -0.18168165
-0.0026093742 -0.20408747 -0.18093072
-0.0027493322 -0.20410281 -0.1801798
-0.0027125208 -0.20465204 -0.17981884
-0.002852322 -0.20466387 -0.1790723
-0.0029923432 -0.20467237 -0.17832798
-0.0029557543 -0.20521827 -0.17796919
-0.0030955877 -0.2052234 -0.17722927
-0.0032716354 -0.20511457 -0.17641407
-0.003235292 -0.20565681 -0.17605768
-0.0033418764 -0.20575774 -0.17539577
-0.003482537 -0.20575103 -0.17466342
-0.003624483 -0.20573772 -0.173931
-0.003588453 -0.20627528 -0.17357768
-0.0037296617 -0.20626031 -0.17285083
-0.0038726854 -0.20623702 -0.1721228
-0.0038368797 -0.20677124 -0.17177169
-0.003944071 -0.20685649 -0.17112242
-0.0041222028 -0.20671637 -0.17032786
-0.00408662 -0.20724726 -0.16997893
-0.0042294506 -0.20721401 -0.16926198
-0.0044082087 -0.20706429 -0.16847382
-0.004552078 -0.20702226 -0.16776031
-0.0045168544 -0.20754778 -0.1674149
-0.0046968637 -0.20738648 -0.16663188
-0.0049117412 -0.20711048 -0.1657814
-0.0048768087 -0.20763168 -0.16543885
-0.005057537 -0.20745993 -0.16466257
-0.005237926 -0.20728612 -0.16389015
-0.005419879 -0.20710413 -0.1631178
-0.005385349 -0.20761931 -0.1627792
-0.005636981 -0.20720668 -0.1618735
-0.0058196844 -0.20701386 -0.16110812
-0.0057854666 -0.20752439 -0.16077259
-0.0059666047 -0.20733197 -0.16001503
-0.0061846813 -0.2070156 -0.1591885
-0.006150754 -0.2075218 -0.1588558
-0.0063685956 -0.20720075 -0.15803523
-0.006624262 -0.20675153 -0.15714529
-0.006807355 -0.20653762 -0.15639915
-0.0067738984 -0.2070368 -0.15607107
-0.007029731 -0.20657712 -0.15519078
-0.0072135925 -0.20635238 -0.15445155
-0.007180449 -0.20684688 -0.15412654
-0.007401831 -0.20649232 -0.15332119
-0.0075502563 -0.20637801 -0.15265669
-0.0075173816 -0.2068685 -0.1523343
-0.007773948 -0.20638724 -0.15147197
-0.007924368 -0.20625901 -0.15081105
-0.008216347 -0.20565085 -0.14989072
-0.008183961 -0.20613405 -0.14957315
-0.008262589 -0.20624137 -0.14905167
-0.008415078 -0.2060965 -0.14839664
-0.008382875 -0.20657697 -0.14808086
-0.008492327 -0.20657483 -0.1475079
-0.008612825 -0.20653297 -0.146917
-0.008580801 -0.20701075 -0.14660299
-0.00883882 -0.20649423 -0.14576861
-0.009200334 -0.20561811 -0.14475343
-0.009394502 -0.20531248 -0.14404166
-0.009363036 -0.20578197 -0.14373308
-0.0095917955 -0.20535204 -0.14296505
-0.010215186 -0.20355183 -0.14150664
-0.010184277 -0.20401298 -0.14120355
-0.0100444965 -0.20485269 -0.14109041
0.15056261 -0.32299408 -0.88011956
0.15071712 -0.32529935 -0.8786044
0.14668782 -0.32168743 -0.8607943
0.14214095 -0.31725606 -0.84105724
0.142289 -0.31946468 -0.8396056
0.13846892 -0.3159441 -0.822818
0.13441586 -0.31200707 -0.8052111
0.13065682 -0.3084181 -0.7888183
0.13079607 -0.3104957 -0.78745276
0.12731348 -0.30720237 -0.7722333
0.12358054 -0.30346462 -0.7561302
0.12371435 -0.30546114 -0.75481796
0.120196015 -0.30193508 -0.73964417
0.11560346 -0.29670328 -0.72047555
0.11573121 -0.2986093 -0.7192228
0.11124961 -0.29341128 -0.7006114
0.10648717 -0.28768858 -0.6810353
0.09891971 -0.27749425 -0.65104634
0.099035054 -0.27921507 -0.6499153
0.06577825 -0.22821462 -0.52441096
0.050331876 -0.20488088 -0.4657606
0.05041197 -0.20607585 -0.46497518
0.04761743 -0.20264672 -0.45356032
0.04649143 -0.20186256 -0.4483549
0.046568587 -0.20301376 -0.44759828
0.04536057 -0.20206082 -0.4421268
0.0442657 -0.2012697 -0.43709424
0.04322269 -0.20054223 -0.43227354
0.043297283 -0.20165516 -0.43154204
0.042500716 -0.20130871 -0.42764822
0.041826397 -0.20115168 -0.4242137
0.041899834 -0.20224734 -0.4234936
0.041221697 -0.2020626 -0.42006686
0.04048159 -0.20175754 -0.41643196
0.04055391 -0.20283654 -0.41572282
0.03987762 -0.20261903 -0.41233915
0.039135672 -0.20227313 -0.4087358
0.03851821 -0.20212992 -0.4055904
0.038588926 -0.203185 -0.40489691
0.03772367 -0.20258401 -0.40089524
0.037222236 -0.20261267 -0.39819378
0.037291884 -0.20365179 -0.3975108
0.036613353 -0.20334616 -0.39420462
0.03623873 -0.20357569 -0.39197522
0.036307532 -0.20460218 -0.39130056
0.035863623 -0.20469289 -0.3888427
0.03552926 -0.20497507 -0.38677448
0.035198614 -0.20525664 -0.38472667
0.035266485 -0.2062693 -0.3840611
0.034617834 -0.20594765 -0.38093042
0.032222815 -0.20234472 -0.37182117
0.032288443 -0.20332393 -0.37117758
0.0171671 -0.1756037 -0.31870937
0.008333029 -0.15954396 -0.28792006
0.008381713 -0.16027033 -0.28744265
0.0074071265 -0.15903488 -0.28350195
0.0067510335 -0.15839426 -0.28065518
0.0061641373 -0.15787473 -0.27805433
0.0062111616 -0.15857635 -0.2775932
0.005625 -0.15804094 -0.27501237
0.005477754 -0.15835552 -0.27390853
0.005524201 -0.1590485 -0.27345306
0.0052532805 -0.15911283 -0.27194396
0.0052396436 -0.15968336 -0.27129248
0.005285827 -0.1603724 -0.2708396
0.005201242 -0.16079889 -0.26995617
0.005314606 -0.16162226 -0.26972508
0.005486538 -0.16256547 -0.26968452
0.0055327653 -0.16325516 -0.26923123
0.0058337604 -0.16446556 -0.26960748
0.006201268 -0.16581707 -0.2701951
0.006247894 -0.16651273 -0.26973787
0.006616246 -0.16787457 -0.27031946
0.0071755582 -0.16963927 -0.2715101
0.0072227633 -0.17034358 -0.27104717
0.007782997 -0.1721239 -0.2722269
0.008214747 -0.1736427 -0.27298716
0.008711614 -0.17530605 -0.2739478
0.008759752 -0.17602426 -0.27347577
0.009129869 -0.17742918 -0.2740231
0.009502061 -0.17884423 -0.27457115
0.009550644 -0.1795691 -0.27409473
0.009792111 -0.18071043 -0.27422377
0.010098337 -0.1819956 -0.2745521
0.010338923 -0.18314236 -0.27467096
0.01038795 -0.18387383 -0.27419022
0.010627485 -0.18502332 -0.27430066
0.011055309 -0.186591 -0.27499044
0.011104727 -0.18732831 -0.27450585
0.011659758 -0.18918833 -0.27557695
0.012406364 -0.19148426 -0.27722687
0.012456605 -0.19223386 -0.2767342
0.013012971 -0.19412054 -0.2777854
0.013695124 -0.1962997 -0.27921027
0.014449816 -0.19865403 -0.28084403
0.014501318 -0.19942242 -0.280339
0.01526922 -0.20182511 -0.2819941
0.015730273 -0.20353754 -0.28271413
0.015782543 -0.20431739 -0.28220156
0.016172254 -0.20587577 -0.28269762
0.016198972 -0.20659935 -0.28210595
0.016251456 -0.2073824 -0.2815913
0.01619144 -0.207903 -0.28074333
0.016054556 -0.20824169 -0.27967024
0.015973782 -0.208709 -0.27876568
0.01602597 -0.20948763 -0.2782539
0.015825458 -0.20966813 -0.2770022
0.015623739 -0.20984145 -0.2757513
0.015675582 -0.21061496 -0.2752429
0.01546777 -0.21076722 -0.2739809
0.015062495 -0.21044102 -0.27215192
0.015113856 -0.2112073 -0.2716483
0.014704294 -0.21085912 -0.26981872
0.014356096 -0.21065205 -0.26817307
0.013812157 -0.2099617 -0.2659745
0.013862534 -0.2107133 -0.26548052
0.013447168 -0.21032314 -0.26366264
0.013032553 -0.20992698 -0.2618548
0.013082302 -0.21066923 -0.26136696
0.01266569 -0.21025647 -0.25956532
0.012183961 -0.20967409 -0.25758877
0.012233042 -0.21040635 -0.2571075
0.011815818 -0.20997204 -0.25532448
0.011397954 -0.20952837 -0.25354758
0.0109127825 -0.2089074 -0.2515918
0.010960878 -0.209625 -0.25112015
0.010542262 -0.20915951 -0.24936138
0.010188168 -0.20885032 -0.24778785
0.010235682 -0.20955926 -0.2473219
0.0098154815 -0.20907094 -0.24557786
0.00946007 -0.20874125 -0.24401812
0.009507005 -0.20944151 -0.24355789
0.00908524 -0.2089304 -0.24182859
0.008662087 -0.208408 -0.24010336
0.00830547 -0.20805094 -0.23856498
0.008351511 -0.20873785 -0.23811351
0.007960457 -0.20828077 -0.23649308
0.0075691603 -0.20781592 -0.23487926
0.00761462 -0.20849416 -0.23443347
0.007222445 -0.20801628 -0.23282817
0.0068630734 -0.20761818 -0.23131673
0.0069079725 -0.2082881 -0.23087643
0.006514362 -0.20778887 -0.22928512
0.0060867076 -0.2071915 -0.22761196
0.005691574 -0.2066737 -0.2260314
0.0057355817 -0.2073303 -0.22559984
0.0053399024 -0.20680037 -0.22402865
0.0049436213 -0.20626171 -0.2224631
0.004987049 -0.20690964 -0.22203724
0.004590204 -0.20635884 -0.22048102
0.004226074 -0.20589028 -0.21901572
0.004268944 -0.20652989 -0.21859534
0.0039037368 -0.20604861 -0.21713723
0.0035383007 -0.20556013 -0.21568516
0.0031720484 -0.20506291 -0.21423766
0.0032141125 -0.20569052 -0.21382517
0.0028820538 -0.2052785 -0.2124734
0.002515145 -0.20476344 -0.2110405
0.002556696 -0.20538338 -0.21063304
0.0021887242 -0.20485558 -0.20920734
0.0018205711 -0.20432079 -0.2077878
0.0018615866 -0.20493272 -0.2073856
0.0014926776 -0.20438607 -0.20597406
0.0011228903 -0.20383047 -0.20456693
0.0007187155 -0.20317064 -0.20308223
0.0007589039 -0.20377025 -0.20268814
0.00042168467 -0.20329128 -0.20137683
5.004725e-05 -0.20270775 -0.19998817
8.972252e-05 -0.2032997 -0.19959912
-0.0002484038 -0.20280305 -0.1983009
-0.00058750535 -0.20229764 -0.19700634
-0.0008583698 -0.20198403 -0.19588093
-0.0008193879 -0.20256563 -0.19549868
-0.001159357 -0.20204346 -0.19421652
-0.0014304296 -0.20171662 -0.1931034
-0.0013918948 -0.20229155 -0.19272551
-0.0016308305 -0.20205185 -0.1916953
-0.0018001453 -0.20201278 -0.19083257
-0.0017619247 -0.20258303 -0.19045778
-0.0019999181 -0.2023359 -0.1894401
-0.002204091 -0.20218486 -0.1885052
-0.0023743708 -0.20213088 -0.18765242
-0.0023366201 -0.20269412 -0.18728223
-0.0025064137 -0.20263678 -0.18643548
-0.002607992 -0.20278077 -0.18574806
-0.0025704647 -0.20334068 -0.18538006
-0.0027413322 -0.20327267 -0.1845384
-0.002877714 -0.20330566 -0.18377809
-0.0028404328 -0.20386189 -0.1834125
-0.0030119382 -0.20378426 -0.18257722
-0.003114566 -0.2039131 -0.18189959
-0.0032522231 -0.20393288 -0.18114586
-0.003215277 -0.2044841 -0.18078357
-0.0033527736 -0.20450044 -0.18003422
-0.003490505 -0.20451337 -0.17928705
-0.003453782 -0.20506127 -0.17892694
-0.0035923636 -0.20506762 -0.17818195
-0.0037301518 -0.20507379 -0.17744134
-0.0036936528 -0.20561835 -0.17708343
-0.0038328357 -0.2056162 -0.17634383
-0.003971716 -0.20561239 -0.17560755
-0.0041448628 -0.20549878 -0.17480001
-0.004108721 -0.206038 -0.17444561
-0.0042838235 -0.20591353 -0.17363867
-0.004353781 -0.20611703 -0.17305937
-0.0043178415 -0.20665325 -0.17270695
-0.0044935313 -0.2065198 -0.17190598
-0.0046332316 -0.20649737 -0.17118423
-0.004597538 -0.20702991 -0.17083421
-0.0047738804 -0.20688677 -0.1700396
-0.0048799505 -0.20696494 -0.169395
-0.0050215153 -0.20692736 -0.16867866
-0.004986157 -0.20745489 -0.16833192
-0.0051633944 -0.20729865 -0.16754584
-0.0053751557 -0.20702797 -0.16669187
-0.0053400886 -0.20755117 -0.166348
-0.005482668 -0.20749907 -0.16564098
-0.005695731 -0.20721553 -0.16479307
-0.005660932 -0.20773473 -0.16445182
-0.0058389874 -0.20755991 -0.16368024
-0.0060186 -0.20737685 -0.1629087
-0.0062321117 -0.20707963 -0.1620723
-0.006197737 -0.20759249 -0.16173524
-0.00644724 -0.20717141 -0.16083267
-0.0065923524 -0.2070904 -0.1601415
-0.0065582693 -0.20759891 -0.15980728
-0.0067729764 -0.20728347 -0.15898298
-0.006989346 -0.2069589 -0.15815909
-0.0069555766 -0.20746274 -0.15782794
-0.007206731 -0.20701677 -0.15694185
-0.0074232263 -0.20668246 -0.15612718
-0.007640819 -0.20634082 -0.15531407
-0.007607541 -0.20683733 -0.15498775
-0.007789174 -0.2066112 -0.15424915
-0.008006837 -0.20626053 -0.15344484
-0.007973849 -0.20675272 -0.15312135
-0.008156173 -0.20651625 -0.15238956
-0.008373675 -0.20615737 -0.15159445
-0.008340978 -0.2066452 -0.15127382
-0.008559981 -0.20627584 -0.15048134
-0.008779394 -0.20590144 -0.14969178
-0.008893173 -0.20588475 -0.14910233
-0.0088608805 -0.20636655 -0.14878565
-0.009043381 -0.20611072 -0.14807257
-0.009119878 -0.20621662 -0.14755747
-0.009087785 -0.20669542 -0.14724275
-0.009201266 -0.2066712 -0.14666255
-0.009459315 -0.2061443 -0.14582177
-0.0094274925 -0.2066191 -0.1455097
-0.0097938925 -0.20570932 -0.14447992
-0.009982205 -0.20541437 -0.14377552
-0.010233028 -0.20489807 -0.14296253
-0.010201762 -0.20536456 -0.14265592
-0.010812816 -0.20357965 -0.14121002
-0.010596427 -0.20469181 -0.14123504
-0.010565444 -0.20515409 -0.14093122
0.14751081 -0.32368577 -0.8777078
0.14343354 -0.3199431 -0.8594794
0.14358465 -0.3221976 -0.85799766
0.13925971 -0.31796974 -0.8389249
0.13565068 -0.31469682 -0.8227492
0.13579571 -0.31686062 -0.821327
0.1317987 -0.31290245 -0.8037523
0.12791634 -0.30903286 -0.7867071
0.12453096 -0.30582815 -0.7716712
0.124667384 -0.3078635 -0.7703334
0.12062534 -0.30355796 -0.75286937
0.11695416 -0.29973665 -0.73691684
0.11708471 -0.30168456 -0.7356366
0.11173264 -0.2951508 -0.71336156
0.107679054 -0.29053116 -0.6961555
0.107802525 -0.2923734 -0.6949447
0.10267988 -0.28594592 -0.6738018
0.09223231 -0.27097028 -0.6325846
0.05478675 -0.21270455 -0.4895378
0.05487123 -0.21396495 -0.48870942
0.048536446 -0.2048565 -0.46374646
0.046166707 -0.20206665 -0.45377868
0.04624472 -0.20323054 -0.45301372
0.045103308 -0.20238933 -0.4477002
0.043845702 -0.20133239 -0.4419784
0.043921854 -0.20246856 -0.44123164
0.04283866 -0.20166485 -0.43619463
0.041931286 -0.20113477 -0.43182927
0.041145805 -0.20079212 -0.42793182
0.04121978 -0.20189579 -0.42720643
0.04061458 -0.20183696 -0.42399424
0.039946254 -0.20165654 -0.4205648
0.0400192 -0.20274486 -0.4198495
0.039289273 -0.202436 -0.41621795
0.03856106 -0.20211485 -0.41260818
0.037891615 -0.20188187 -0.40922624
0.037962865 -0.20294493 -0.40852752
0.037294704 -0.2026932 -0.40517172
0.03649875 -0.20219897 -0.40137216
0.036568847 -0.20324478 -0.4006848
0.036020312 -0.20317301 -0.39779228
0.035474014 -0.20309362 -0.39491954
0.035543222 -0.20412618 -0.3942409
0.03517407 -0.20435445 -0.39201224
0.034484476 -0.20398358 -0.388662
0.03403363 -0.204041 -0.3861659
0.03410161 -0.20505522 -0.38549927
0.033881735 -0.20553052 -0.38382584
0.033171058 -0.20507696 -0.3804459
0.033238273 -0.20607981 -0.37978676
0.027562745 -0.19617052 -0.3592048
0.010538041 -0.16448388 -0.29946625
0.010588969 -0.16524372 -0.29896685
0.007207909 -0.15938675 -0.28665844
0.0064668176 -0.15858054 -0.28347364
0.005631644 -0.15757662 -0.27998176
0.0056789382 -0.15828225 -0.279518
0.005096659 -0.15775082 -0.27691165
0.0046418523 -0.15745945 -0.27474973
0.004688343 -0.15815309 -0.27429384
0.004421616 -0.15822266 -0.27278078
0.0041522835 -0.15828128 -0.27126482
0.004198329 -0.15896827 -0.27081332
0.004248163 -0.15966292 -0.27037445
0.004165433 -0.16008864 -0.26949304
0.004337482 -0.16103132 -0.26946214
0.0043835286 -0.16171832 -0.2690106
0.004555867 -0.162665 -0.2689771
0.004790448 -0.16374253 -0.2691467
0.004836716 -0.16443284 -0.268693
0.005076096 -0.1655255 -0.26887318
0.005438778 -0.16687961 -0.26945338
0.005485404 -0.16757527 -0.26899615
0.0060371547 -0.16933697 -0.270183
0.0065272204 -0.17097701 -0.2711604
0.0068931524 -0.17236081 -0.27172795
0.0069406666 -0.17306973 -0.271262
0.0073060337 -0.17446086 -0.27181897
0.0077345814 -0.17599384 -0.27257293
0.0077825873 -0.17671007 -0.27210218
0.008085424 -0.17798008 -0.2724446
0.008324538 -0.17911556 -0.27257964
0.008372855 -0.17983644 -0.27210584
0.0084851775 -0.1806981 -0.27183455
0.008786876 -0.18197915 -0.27215955
0.009024967 -0.18312365 -0.27227986
0.0090736365 -0.18384978 -0.2718026
0.00937343 -0.18513724 -0.2721108
0.009800343 -0.18671434 -0.27281088
0.00984945 -0.187447 -0.27232936
0.0102773635 -0.18903638 -0.27302238
0.010698454 -0.19061688 -0.27368754
0.010748083 -0.19135731 -0.2732009
0.0111736655 -0.1929579 -0.27386993
0.011793565 -0.19501129 -0.27512783
0.0123561695 -0.19694257 -0.27620044
0.0124068055 -0.19769806 -0.2757039
0.012967858 -0.19963911 -0.2767582
0.0132846655 -0.2010196 -0.27706346
0.013335838 -0.20178308 -0.27656168
0.013589225 -0.20302151 -0.2766689
0.013847877 -0.20427589 -0.27678838
0.013899331 -0.20504357 -0.27628383
0.0140851755 -0.20613039 -0.27618045
0.014397817 -0.20752175 -0.27645212
0.0143355215 -0.20802075 -0.2756065
0.014387169 -0.20879133 -0.27510005
0.0143927215 -0.20945087 -0.2744576
0.014323144 -0.20992795 -0.27359498
0.014374678 -0.21069682 -0.27308962
0.014038407 -0.21052146 -0.27145034
0.013702903 -0.21034132 -0.26982003
0.013753906 -0.21110228 -0.2693199
0.013409986 -0.21089156 -0.26767528
0.012937117 -0.21035574 -0.26566496
0.012463444 -0.20980905 -0.26366138
0.0125134615 -0.21055533 -0.2631709
0.012104248 -0.21015607 -0.26136547
0.011694352 -0.20974739 -0.25956604
0.011743746 -0.21048433 -0.25908166
0.01133188 -0.210059 -0.25728852
0.010921393 -0.20962942 -0.25550717
0.010509281 -0.20918797 -0.2537291
0.010557736 -0.2099109 -0.25325397
0.010144652 -0.20945536 -0.25148505
0.009796945 -0.20915957 -0.24990669
0.009844819 -0.20987381 -0.24943726
0.009430234 -0.20939566 -0.24768329
0.009081155 -0.20907924 -0.24611858
0.009128448 -0.20978482 -0.24565484
0.008712358 -0.20928402 -0.2439158
0.0083619 -0.20894693 -0.24236469
0.007944603 -0.20842811 -0.2406375
0.007991002 -0.20912038 -0.2401825
0.007639891 -0.20876454 -0.23864697
0.007221048 -0.208223 -0.2369346
0.0072668656 -0.20890659 -0.2364853
0.006913597 -0.20852804 -0.23496126
0.0065268707 -0.20805363 -0.23335409
0.006572129 -0.2087289 -0.23291028
0.006151215 -0.20815197 -0.23122276
0.0057959952 -0.20774442 -0.22971776
0.005307823 -0.20697102 -0.22786695
0.0053521437 -0.20763227 -0.22743234
0.004995481 -0.20720334 -0.22594132
0.0045720832 -0.20658591 -0.2242817
0.004615823 -0.20723851 -0.22385278
0.0042577535 -0.20678885 -0.22237529
0.0038659668 -0.20623991 -0.22081673
0.0039091473 -0.20688416 -0.2203933
0.003549688 -0.2064141 -0.21892911
0.0031897074 -0.20593607 -0.21747021
0.0028292155 -0.20545012 -0.21601667
0.0028715935 -0.20608239 -0.2156011
0.0024769884 -0.20549116 -0.21407042
0.0021488396 -0.2050795 -0.21271597
0.0021906812 -0.20570375 -0.21230567
0.0018615085 -0.2052803 -0.21095772
0.0014653971 -0.20466131 -0.2094472
0.0015067022 -0.20527756 -0.20904216
0.0011428751 -0.20474005 -0.20762317
0.0007788876 -0.20419556 -0.20621036
0.00041400886 -0.20364207 -0.20480193
0.00045450928 -0.20424633 -0.20440479
5.536575e-05 -0.20358449 -0.20292157
-0.0003108213 -0.20301083 -0.20152663
-0.00027087875 -0.20360675 -0.20113496
-0.00060394965 -0.2031196 -0.19983087
-0.00093797944 -0.20262375 -0.19853047
-0.00089852954 -0.20321235 -0.19814362
-0.0012333585 -0.2027053 -0.19685028
-0.0015683156 -0.20219198 -0.19556268
-0.0018697751 -0.20177136 -0.19436169
-0.0018310396 -0.20234929 -0.19398184
-0.002065437 -0.20211907 -0.19294927
-0.002334264 -0.2017824 -0.19183904
-0.0022959094 -0.20235465 -0.19146293
-0.0024966325 -0.20221393 -0.1905212
-0.0026976417 -0.20206858 -0.18958262
-0.0026596 -0.20263617 -0.18920957
-0.0028272758 -0.20258541 -0.18835473
-0.0030285802 -0.20243013 -0.18742467
-0.0031629705 -0.2024733 -0.18665405
-0.0031253307 -0.20303488 -0.18628494
-0.0032930484 -0.20297283 -0.18544142
-0.0033932927 -0.20311303 -0.18475647
-0.0033558768 -0.20367128 -0.18438958
-0.003524661 -0.20359854 -0.18355115
-0.0036593277 -0.20362732 -0.18279372
-0.0036221573 -0.2041819 -0.18242924
-0.0037566852 -0.2042071 -0.18167616
-0.0038924054 -0.20422603 -0.18092309
-0.003993847 -0.20434849 -0.18024977
-0.003956991 -0.20489839 -0.17988835
-0.0041267932 -0.20480482 -0.17906567
-0.004262808 -0.20481355 -0.17832138
-0.004226196 -0.2053598 -0.17796236
-0.0043284707 -0.20547041 -0.17729661
-0.0044996766 -0.20536219 -0.17648132
-0.0044632885 -0.2059051 -0.17612448
-0.004600225 -0.20590039 -0.1753889
-0.004703226 -0.20600055 -0.17472988
-0.0048752925 -0.20587935 -0.17392315
-0.0048392406 -0.20641723 -0.17356962
-0.0049427208 -0.20651007 -0.17291547
-0.005115421 -0.2063795 -0.17211488
-0.005079592 -0.20691407 -0.17176354
-0.0052178497 -0.20688942 -0.17104116
-0.005391194 -0.2067492 -0.17024691
-0.005355612 -0.20728008 -0.16989799
-0.0054595666 -0.20735961 -0.16925485
-0.0056340527 -0.20720837 -0.16846566
-0.005808822 -0.20705308 -0.16767907
-0.0057735983 -0.20757861 -0.16733366
-0.0059482437 -0.20741904 -0.16655213
-0.0061237235 -0.2072536 -0.16577205
-0.0060887686 -0.20777512 -0.16542928
-0.006299122 -0.20749037 -0.16458233
-0.006474738 -0.20731641 -0.16381018
-0.0066857026 -0.20702262 -0.16296913
-0.006651194 -0.20753749 -0.16263074
-0.0068281437 -0.20735106 -0.1618641
-0.0070750313 -0.20692904 -0.16095956
-0.007040836 -0.20743924 -0.16062422
-0.007217198 -0.20724648 -0.15986724
-0.0073951627 -0.20704524 -0.15911022
-0.0073612356 -0.20755143 -0.15877752
-0.007609474 -0.20710939 -0.1578861
-0.007823509 -0.20677842 -0.15706636
-0.008070949 -0.20633106 -0.15618467
-0.008037537 -0.20682958 -0.15585703
-0.008252438 -0.20648637 -0.15504506
-0.008397046 -0.20637834 -0.15437336
-0.008363903 -0.20687282 -0.15404835
-0.008614257 -0.20640016 -0.15317671
-0.008758768 -0.20628522 -0.15251258
-0.008725915 -0.2067754 -0.15219042
-0.008976116 -0.20629373 -0.15132877
-0.009156817 -0.20604712 -0.15060325
-0.009408915 -0.20555124 -0.14974584
-0.009376553 -0.20603406 -0.14942849
-0.009488895 -0.20601591 -0.14883961
-0.009671333 -0.20575248 -0.14812183
-0.009639197 -0.20623195 -0.1478067
-0.009709357 -0.20635504 -0.14730187
-0.009824084 -0.20632108 -0.14671619
-0.009792103 -0.20679821 -0.1464026
-0.010051333 -0.2062546 -0.14555532
-0.010373478 -0.20548585 -0.14459743
-0.010590705 -0.20508128 -0.14383543
-0.010559285 -0.20555009 -0.14352731
-0.010827629 -0.2049596 -0.14267856
-0.01146036 -0.20307463 -0.14117955
-0.01142954 -0.20353445 -0.14087732
-0.011262481 -0.20447859 -0.14081788
0.14468221 -0.32260272 -0.8782862
0.14483644 -0.3249039 -0.8767737
0.14081345 -0.32113653 -0.8585643
0.13654914 -0.31693187 -0.83947915
0.13669693 -0.31913704 -0.8380298
0.13313597 -0.31584224 -0.82187086
0.12919496 -0.31190553 -0.80428475
0.12536694 -0.30805674 -0.7872284
0.12550595 -0.31013077 -0.78586525
0.12216555 -0.3069056 -0.770845
0.118179806 -0.3026216 -0.75336945
0.118313156 -0.30461115 -0.75206184
0.11469042 -0.30076778 -0.7361262
0.10941204 -0.2942623 -0.7138361
0.10953858 -0.29615018 -0.7125952
0.1055381 -0.29150635 -0.69540775
0.10048582 -0.28510585 -0.6742504
0.09017991 -0.27018446 -0.63300425
0.09029182 -0.27185416 -0.63190687
0.053321965 -0.21337175 -0.48902622
0.04707304 -0.20429619 -0.4640457
0.047152836 -0.20548671 -0.4632632
0.044814065 -0.20268276 -0.45330626
0.04368893 -0.20184778 -0.44798943
0.04376605 -0.20299843 -0.44723317
0.04252527 -0.20193383 -0.44151723
0.041457515 -0.20113604 -0.43647704
0.04056323 -0.20061097 -0.43210903
0.04063783 -0.20172393 -0.43137753
0.039863158 -0.20137635 -0.42748383
0.039266977 -0.20132099 -0.4242698
0.03934046 -0.20241731 -0.42354923
0.038681433 -0.20223264 -0.42012304
0.03796215 -0.20192786 -0.41648933
0.038034514 -0.20300753 -0.4157797
0.037316322 -0.20268182 -0.41217345
0.03665615 -0.20244463 -0.40879473
0.035997763 -0.2021966 -0.40543693
0.03606848 -0.20325172 -0.40474346
0.035283346 -0.20275258 -0.4009477
0.034742974 -0.20268391 -0.39805347
0.034812625 -0.2037231 -0.3973705
0.034273993 -0.20364021 -0.3945004
0.033910606 -0.2038707 -0.3922706
0.033979498 -0.20489857 -0.391595
0.033299338 -0.2045234 -0.38824806
0.032854944 -0.2045779 -0.3857542
0.032638844 -0.20505463 -0.38408002
0.032706615 -0.20606577 -0.38341543
0.032005582 -0.20560783 -0.38003883
0.026405234 -0.19572732 -0.3594415
0.026468351 -0.19666901 -0.35882255
0.009654974 -0.1648861 -0.29915783
0.006318744 -0.15904629 -0.28684026
0.0063672285 -0.15976967 -0.28636482
0.005635884 -0.15895903 -0.28318343
0.0048115966 -0.15795015 -0.27969536
0.004237517 -0.15742187 -0.27708733
0.0042843632 -0.15812081 -0.27662796
0.003835734 -0.15782663 -0.27446818
0.0035730712 -0.15789776 -0.27295431
0.0036193412 -0.15858808 -0.27250057
0.0033538886 -0.15864494 -0.270986
0.0034036697 -0.15933956 -0.27054715
0.003449718 -0.1600266 -0.2700956
0.003368569 -0.16045162 -0.26921475
0.0035390733 -0.16139498 -0.26918328
0.0037097766 -0.16234104 -0.2691501
0.0037559115 -0.16302937 -0.2686977
0.0039881947 -0.16410795 -0.26886654
0.004225084 -0.16519965 -0.2690472
0.004271488 -0.16589199 -0.26859218
0.004630312 -0.16724786 -0.269171
0.005175553 -0.16900708 -0.2703592
0.0052225334 -0.16970801 -0.2698985
0.0057072113 -0.17135051 -0.27087402
0.006069267 -0.17273608 -0.2714402
0.006430555 -0.17412566 -0.27199802
0.006478293 -0.17483789 -0.27152988
0.0069022193 -0.17637299 -0.2722822
0.0072017927 -0.17764175 -0.2726253
0.0072499756 -0.17836061 -0.2721528
0.0074867764 -0.17949715 -0.27228704
0.0075982767 -0.18035851 -0.27201593
0.00789674 -0.18163833 -0.27234155
0.007945277 -0.1823625 -0.2718656
0.008181077 -0.18350802 -0.2719851
0.008477671 -0.18479425 -0.27229396
0.008526515 -0.18552299 -0.271815
0.008948868 -0.18710217 -0.2725135
0.009371969 -0.1886897 -0.27320755
0.009421338 -0.18942629 -0.27272344
0.0098379515 -0.19100882 -0.273387
0.010258766 -0.19260757 -0.274057
0.010871431 -0.19465822 -0.2753164
0.010921713 -0.1954084 -0.2748233
0.011478173 -0.19734247 -0.2758938
0.012032764 -0.19928107 -0.2769494
0.012083752 -0.2000418 -0.2764494
0.01239738 -0.20142375 -0.27675357
0.012648207 -0.2026612 -0.27686134
0.012699517 -0.20342676 -0.27635816
0.012955702 -0.20468226 -0.27647677
0.01313984 -0.20576842 -0.27637374
0.013449198 -0.20715852 -0.27664614
0.013500923 -0.20793028 -0.2761389
0.013439986 -0.20842865 -0.27529374
0.013446118 -0.2090884 -0.27465117
0.013497735 -0.20985852 -0.274145
0.013429596 -0.21033494 -0.2732829
0.013098192 -0.21016145 -0.2716426
0.01314946 -0.21092635 -0.27113986
0.012818543 -0.21074413 -0.26951116
0.012479567 -0.2105353 -0.26786554
0.012013257 -0.21000202 -0.26585388
0.012063632 -0.2107536 -0.2653599
0.011596155 -0.2102041 -0.26335847
0.011192671 -0.20980705 -0.26155186
0.011242376 -0.21054864 -0.26106444
0.0108379135 -0.21013747 -0.2592669
0.010431796 -0.20971437 -0.25747254
0.010480875 -0.21044663 -0.2569913
0.010075806 -0.21001457 -0.25521183
0.009669122 -0.20957066 -0.25343567
0.009261775 -0.2091173 -0.2516656
0.009309917 -0.20983556 -0.25119352
0.008966856 -0.20953766 -0.24961679
0.00855801 -0.20906168 -0.24786165
0.0086055705 -0.20977129 -0.24739528
0.008261144 -0.20945273 -0.24583218
0.007850793 -0.20895413 -0.24409197
0.007897773 -0.20965505 -0.24363129
0.0075519667 -0.20931584 -0.24208182
0.0071400884 -0.20879456 -0.2403565
0.0067938925 -0.20844062 -0.23881997
0.006840021 -0.20912886 -0.23836762
0.006426604 -0.20858485 -0.23665713
0.006078251 -0.2082082 -0.23513207
0.0061237984 -0.20888779 -0.23468542
0.0057421066 -0.20841107 -0.23308
0.0053269314 -0.20783636 -0.23139133
0.005371877 -0.20850694 -0.23095058
0.005021312 -0.20809728 -0.2294472
0.0045393226 -0.20732106 -0.22759855
0.00418758 -0.206894 -0.22610652
0.0042316336 -0.20755127 -0.22567454
0.003813653 -0.20693137 -0.22401682
0.0034604976 -0.20648359 -0.22253832
0.0035039699 -0.20713219 -0.22211203
0.0031172188 -0.20658094 -0.22055523
0.0027626785 -0.20611277 -0.21909004
0.002805592 -0.20675303 -0.21866924
0.0024502643 -0.20627289 -0.21721195
0.0020944243 -0.20578481 -0.21576004
0.0017051381 -0.20519562 -0.21422826
0.0017472255 -0.20582356 -0.21381555
0.0014233394 -0.20540994 -0.21246259
0.0010986826 -0.20498821 -0.2111137
0.0011402774 -0.2056088 -0.21070583
0.0007491941 -0.20498751 -0.20919706
0.00039028816 -0.20445186 -0.20777707
0.00043132596 -0.20506413 -0.20737465
7.197653e-05 -0.20451753 -0.20596348
-0.00028825027 -0.20396194 -0.20455667
-0.00068206945 -0.20330213 -0.20307238
-0.00064185867 -0.20390207 -0.20267807
-0.0010033994 -0.20332628 -0.20128475
-0.0013319626 -0.20284085 -0.19997975
-0.001292265 -0.20343313 -0.19959047
-0.0016220252 -0.20293534 -0.19829156
-0.001952347 -0.20243 -0.19699731
-0.002282796 -0.2019184 -0.1957088
-0.0022438364 -0.20249966 -0.19532676
-0.002541416 -0.20207728 -0.19412711
-0.0027725287 -0.20184831 -0.19309387
-0.002733972 -0.20242359 -0.19271576
-0.0029993174 -0.20208532 -0.19160677
-0.0031971636 -0.20194568 -0.19066446
-0.003158965 -0.2025156 -0.19028987
-0.0033572617 -0.20236903 -0.18935223
-0.0035224773 -0.20231922 -0.18849689
-0.0037209152 -0.20216504 -0.18756624
