ply
format ascii 1.0
element vertex 1397
property float x
property float y
property float z
end_header
0.19025385 -0.2710356 -0.1286591
0.18989143 -0.27087176 -0.12773448
0.189686 -0.27116176 -0.12704167
0.18963899 -0.27191415 -0.12658067
0.1897682 -0.2731859 -0.12637536
0.1892913 -0.2726688 -0.12529165
0.1892444 -0.2734191 -0.124831885
0.18957792 -0.27530158 -0.12491936
0.25050786 -0.14755546 -0.3525616
0.24640569 -0.14469622 -0.34244168
0.24633747 -0.14578757 -0.34177294
0.24159248 -0.14219092 -0.33019447
0.23866929 -0.1403624 -0.32289127
0.2386045 -0.14139912 -0.32225603
0.23651358 -0.140358 -0.316915
0.23615183 -0.14107221 -0.31559786
0.2353249 -0.14129761 -0.3132056
0.23526151 -0.14231192 -0.3125841
0.23518963 -0.14331727 -0.311943
0.23446025 -0.14362273 -0.309786
0.23439716 -0.14463213 -0.30916747
0.23413853 -0.14543043 -0.3080995
0.23342028 -0.14572579 -0.30597785
0.2333576 -0.14672899 -0.30536315
0.23320185 -0.14762956 -0.30453548
0.23267242 -0.14811353 -0.3028546
0.23242393 -0.14890453 -0.3018179
0.23236157 -0.1499023 -0.30120653
0.23201865 -0.1505818 -0.29995692
0.23195605 -0.15157712 -0.299346
0.23189382 -0.15257284 -0.2987359
0.23192343 -0.1536749 -0.29833373
0.23186249 -0.15467282 -0.29772618
0.23180021 -0.15566921 -0.29711565
0.2319254 -0.1568871 -0.2969277
0.23204851 -0.15810546 -0.29673374
0.23208003 -0.15921706 -0.29633266
0.23201755 -0.1602169 -0.29572004
0.2320479 -0.16132934 -0.2953154
0.23226391 -0.1626699 -0.2953254
0.23220126 -0.16367245 -0.29471108
0.23232605 -0.1649068 -0.29451478
0.23263311 -0.166371 -0.29472294
0.2325702 -0.16737765 -0.29410616
0.2328777 -0.16885118 -0.29431143
0.23318194 -0.17032646 -0.29450688
0.23339668 -0.17169335 -0.29450175
0.2333333 -0.17270747 -0.29388037
0.23372565 -0.1743105 -0.29426402
0.23420922 -0.17603944 -0.29484537
0.23414537 -0.17706098 -0.29421943
0.23481071 -0.17904222 -0.29519394
0.23600024 -0.18172927 -0.29731202
0.23593548 -0.18276544 -0.2966771
0.23728748 -0.18570036 -0.29913688
0.23915726 -0.18935606 -0.3027158
0.24153005 -0.19372503 -0.30737627
0.24146262 -0.19480403 -0.30671513
0.24372242 -0.19907673 -0.31110457
0.24549696 -0.20271708 -0.31442618
0.2454276 -0.20382698 -0.31374612
0.24705748 -0.20730981 -0.3167357
0.2481769 -0.21010314 -0.3186127
0.2481062 -0.21123447 -0.3179195
0.24912283 -0.21391055 -0.3195629
0.2499193 -0.21628967 -0.32072625
0.2506203 -0.21854569 -0.32167897
0.25054833 -0.21969728 -0.32097334
0.25123578 -0.2219524 -0.32188886
0.251827 -0.22407922 -0.32259387
0.25175434 -0.2252414 -0.32188177
0.2525154 -0.22763532 -0.32294038
0.2530125 -0.22965072 -0.32343334
0.25359455 -0.23180227 -0.32410204
0.25352097 -0.2329798 -0.32338053
0.2539309 -0.23488751 -0.32367912
0.2543406 -0.23680276 -0.32397366
0.25426653 -0.2379875 -0.32324773
0.2547584 -0.24004069 -0.32370952
0.2551651 -0.24197185 -0.32398888
0.25509056 -0.24316444 -0.32325813
0.25540394 -0.24496181 -0.32333735
0.2558108 -0.24691218 -0.32360864
0.25622097 -0.24887569 -0.32388335
0.2561458 -0.2500784 -0.32314643
0.25663573 -0.25218084 -0.3235812
0.25712025 -0.254284 -0.32400072
0.25704455 -0.25549516 -0.3232586
0.25744754 -0.25748035 -0.32350388
0.25766334 -0.2591692 -0.32336023
0.25758728 -0.26038617 -0.32261455
0.25730956 -0.26127204 -0.3214551
0.25718185 -0.26240206 -0.32060438
0.25713348 -0.2636628 -0.3199162
0.25705752 -0.26487806 -0.31917155
0.2564095 -0.26513502 -0.3172615
0.2560245 -0.26582527 -0.3158905
0.25594896 -0.26703387 -0.31514993
0.25505722 -0.2668549 -0.3127556
0.2541676 -0.26666588 -0.3103715
0.2540928 -0.2678622 -0.30963847
0.25320232 -0.2676512 -0.30726162
0.2521357 -0.26712132 -0.30453652
0.2511581 -0.2667298 -0.3019974
0.2510846 -0.26790556 -0.30127695
0.2499338 -0.26718673 -0.2984014
0.24878146 -0.266447 -0.2955307
0.248709 -0.26760647 -0.29482028
0.24764647 -0.26699972 -0.29214025
0.24658602 -0.26638007 -0.28947175
0.2465145 -0.2675245 -0.2887705
0.24536535 -0.26671928 -0.2859375
0.2443955 -0.26622173 -0.28346646
0.24333872 -0.2655502 -0.28083083
0.2432686 -0.26667216 -0.28014335
0.24239033 -0.2663046 -0.27786925
0.24133545 -0.2655963 -0.2752551
0.24126619 -0.26670462 -0.274576
0.2403908 -0.2663066 -0.27232322
0.23942746 -0.26572978 -0.26990518
0.239359 -0.26682514 -0.269234
0.23848446 -0.26639357 -0.2669983
0.23752317 -0.26578325 -0.2646006
0.23665208 -0.26533008 -0.262384
0.23658481 -0.2664063 -0.26172456
0.2356256 -0.26576257 -0.25934732
0.23466729 -0.26510528 -0.25697854
0.23460087 -0.26616785 -0.25632742
0.23364483 -0.26549202 -0.25397304
0.23268862 -0.26480064 -0.25162512
0.23262306 -0.26584962 -0.25098237
0.23175626 -0.2653122 -0.24881463
0.23071401 -0.26441213 -0.24631979
0.22984968 -0.2638505 -0.24416958
0.22978535 -0.26487973 -0.24353895
0.22892126 -0.26429787 -0.24139827
0.22805794 -0.2637037 -0.23926517
0.22799438 -0.26472065 -0.23864205
0.22722006 -0.26428732 -0.2366851
0.22635947 -0.2636649 -0.23457202
0.22629665 -0.26467025 -0.23395601
0.22552495 -0.26421076 -0.23201786
0.22475307 -0.26373848 -0.23008473
0.22398275 -0.26325718 -0.22815998
0.22392094 -0.26424614 -0.22755402
0.2231525 -0.2637502 -0.22564091
0.22229551 -0.2630551 -0.2235697
0.22223443 -0.26403245 -0.22297084
0.22155519 -0.2636946 -0.2212356
0.22087656 -0.26334724 -0.21950619
0.22081608 -0.26431504 -0.2189132
0.22005014 -0.26376343 -0.21703152
0.2192849 -0.2632009 -0.21515654
0.21860844 -0.26281872 -0.2134485
0.21854894 -0.26377082 -0.2128651
0.21778537 -0.2631817 -0.21100643
0.21719784 -0.262967 -0.20947139
0.21713892 -0.26390955 -0.20889385
0.21646483 -0.26348916 -0.20720921
0.21579193 -0.26306042 -0.20553143
0.21520627 -0.2628157 -0.2040148
0.21514821 -0.2637446 -0.20344563
0.21447618 -0.2632914 -0.20178105
0.21380588 -0.2628313 -0.20012437
0.21374843 -0.26375064 -0.19956106
0.21316487 -0.2634717 -0.19806531
0.21258302 -0.26318732 -0.19657665
0.21252608 -0.26409847 -0.19601837
0.21194378 -0.263799 -0.19453514
0.21127582 -0.26329198 -0.19290549
0.21069461 -0.26297548 -0.19143271
0.21063846 -0.26387364 -0.19088238
0.21005924 -0.2635477 -0.18941925
0.2094799 -0.2632121 -0.18796009
0.20942429 -0.2641021 -0.18741477
0.20884572 -0.26375425 -0.18596314
0.20826766 -0.26339823 -0.18451653
0.20821255 -0.26428 -0.18397622
0.2075489 -0.2637049 -0.18238847
0.20705917 -0.26353678 -0.1811042
0.20648359 -0.26315367 -0.17967631
0.20642924 -0.2640232 -0.17914352
0.20585376 -0.26362628 -0.177722
0.2052788 -0.26322114 -0.17630555
0.20522498 -0.26408246 -0.17577778
0.2047375 -0.26387814 -0.17451568
0.20425044 -0.26366702 -0.17325775
0.20419703 -0.26452154 -0.17273416
0.20353813 -0.26387158 -0.17119248
0.20305224 -0.263642 -0.16994585
0.2025668 -0.2634057 -0.16870344
0.20251413 -0.2642486 -0.16818696
0.20202927 -0.264002 -0.16695078
0.20145923 -0.26353186 -0.1655765
0.20140702 -0.26436728 -0.16506462
0.20092332 -0.264103 -0.16383934
0.20052555 -0.26405057 -0.16275927
0.20047373 -0.26487982 -0.16225114
0.20007722 -0.2648211 -0.16117732
0.19968031 -0.264755 -0.16010562
0.19919913 -0.2644639 -0.1588991
0.19914785 -0.2652843 -0.15839642
0.1986673 -0.26498303 -0.15719616
0.1982724 -0.26489836 -0.15613821
0.19822152 -0.26571262 -0.15563929
0.19774124 -0.26539302 -0.15444788
0.19734806 -0.26529616 -0.15340002
0.19729756 -0.26610428 -0.15290485
0.19690412 -0.26599726 -0.15186079
0.19651182 -0.26588693 -0.15082134
0.19611911 -0.26576912 -0.14978407
0.19606912 -0.26656908 -0.1492939
0.1955922 -0.26621383 -0.1481274
0.19520046 -0.26608187 -0.14709897
0.19515085 -0.26687568 -0.14661258
0.19475962 -0.26673552 -0.14558919
0.1943688 -0.26659018 -0.14456923
0.19431953 -0.26737848 -0.1440862
0.19384496 -0.26699218 -0.14293982
0.19345629 -0.26683602 -0.14193062
0.19306707 -0.26667184 -0.14092335
0.19301835 -0.26745135 -0.14044572
0.19254579 -0.26704428 -0.13931406
0.19207393 -0.26663122 -0.13818702
0.19202563 -0.26740396 -0.13771354
0.1918084 -0.2676989 -0.13698147
0.19142146 -0.2675092 -0.13599177
0.19137342 -0.26827785 -0.1355208
0.19090608 -0.26784882 -0.13441324
0.19060522 -0.267889 -0.13356127
0.19039528 -0.2681858 -0.13284864
0.19034767 -0.26894772 -0.13238177
0.19013819 -0.26924115 -0.13167189
0.19001652 -0.2697865 -0.13109483
0.18996902 -0.27054656 -0.13062912
0.18976529 -0.2708499 -0.12993081
0.18939453 -0.27066064 -0.12898584
0.18934728 -0.27141678 -0.12852252
0.18898787 -0.27125162 -0.12759836
0.18878397 -0.271541 -0.12690577
0.18891157 -0.27281207 -0.12670107
0.18886445 -0.27356583 -0.12623921
0.18839169 -0.273047 -0.12515612
0.18872173 -0.27492794 -0.1252449
0.18867464 -0.27568132 -0.12478328
0.24996346 -0.14771698 -0.35477033
0.2498931 -0.14884286 -0.35408047
0.24412969 -0.14427947 -0.3399625
0.23944457 -0.14071362 -0.32842293
0.23937891 -0.14176415 -0.32777923
0.23722813 -0.1406823 -0.3222386
0.2352563 -0.13975242 -0.31713194
0.23519246 -0.14077374 -0.31650615
0.23492089 -0.14157772 -0.31539452
0.2341051 -0.141805 -0.31301376
0.23393917 -0.14271043 -0.31215325
0.23387583 -0.14372396 -0.31153223
0.23315726 -0.1440316 -0.309388
0.23280802 -0.1447298 -0.30810568
0.23274511 -0.14573641 -0.3074889
0.23194157 -0.14592771 -0.3051581
0.23169227 -0.14672188 -0.30411315
0.23107399 -0.14710112 -0.30221814
0.23101176 -0.14809683 -0.30160803
0.23076494 -0.14888354 -0.30057323
0.23042339 -0.14955933 -0.2993222
0.23036137 -0.15055163 -0.29871416
0.23020738 -0.15143761 -0.29789546
0.2301439 -0.1524275 -0.29728445
0.23008193 -0.1534191 -0.29667684
0.23002206 -0.15441318 -0.29607403
0.23005266 -0.1555148 -0.29567719
0.23008317 -0.15661772 -0.29527938
0.2300211 -0.1576107 -0.29467094
0.23005138 -0.15871558 -0.29427168
0.23008224 -0.15982264 -0.29387316
0.23002009 -0.16081701 -0.29326388
0.2300508 -0.1619261 -0.292864
0.23026472 -0.16326447 -0.292876
0.2302024 -0.16426156 -0.29226506
0.23041485 -0.16560474 -0.2922709
0.23071884 -0.16706829 -0.29247993
0.23092899 -0.16841802 -0.29247642
0.23086624 -0.16942191 -0.2918613
0.2311683 -0.17089692 -0.29205996
0.23146914 -0.17237622 -0.29225335
0.23140606 -0.17338552 -0.29163492
0.23179848 -0.1749941 -0.29202777
0.23227765 -0.17672478 -0.29260966
0.23221411 -0.17774151 -0.29198667
0.2331331 -0.18007466 -0.2935347
0.23413418 -0.1825343 -0.29525685
0.23590955 -0.18606104 -0.29867676
0.2358442 -0.18710677 -0.298036
0.23793976 -0.19111761 -0.30213937
0.24015152 -0.19532387 -0.30648208
0.2400841 -0.19640274 -0.305821
0.24199262 -0.20024104 -0.30947688
0.24377258 -0.20393087 -0.31283826
0.24370337 -0.20503835 -0.31215966
0.2450735 -0.208191 -0.31461024
0.24617274 -0.21098004 -0.31646267
0.24697305 -0.2133585 -0.31765893
0.24690221 -0.21449205 -0.31696436
0.2475126 -0.21661578 -0.31774107
0.24819022 -0.21884899 -0.3186579
0.24811871 -0.21999325 -0.31795678
0.24862179 -0.22198683 -0.3184904
0.24937236 -0.22435777 -0.31955093
0.2493002 -0.22551252 -0.31884336
0.2497042 -0.2273829 -0.31915396
0.25019288 -0.229389 -0.3196418
0.2506796 -0.23140144 -0.32012153
0.2506067 -0.23256822 -0.3194066
0.25100878 -0.23446453 -0.3197005
0.25158042 -0.23663042 -0.32035038
0.25150695 -0.23780563 -0.31963027
0.25190112 -0.23971058 -0.31989813
0.25220928 -0.24148838 -0.31998128
0.25213546 -0.24267001 -0.31925726
0.2525347 -0.24460176 -0.3195277
0.25275522 -0.24625649 -0.31941968
0.2532351 -0.24833162 -0.31985268
0.25316063 -0.24952324 -0.31912252
0.25364637 -0.25162172 -0.3195618
0.25403842 -0.25357714 -0.31980175
0.25396347 -0.2547765 -0.31906682
0.25426835 -0.25660026 -0.3191206
0.25438258 -0.25811547 -0.31877646
0.25430736 -0.25931916 -0.3180389
0.2547443 -0.26137766 -0.31835917
0.25507072 -0.26325935 -0.3184478
0.25494552 -0.2643865 -0.3176041
0.25486988 -0.2655968 -0.3168625
0.2544162 -0.26616344 -0.31534564
0.2537832 -0.26641688 -0.31346458
0.253708 -0.26762003 -0.31272733
0.2529967 -0.26772413 -0.31069273
0.25220373 -0.26767555 -0.30849648
0.25212917 -0.2688684 -0.30776557
0.25115737 -0.26848817 -0.3052146
0.25010225 -0.26794595 -0.3025016
0.24896146 -0.26723546 -0.29962274
0.24888833 -0.26840582 -0.2989056
0.2477462 -0.26766568 -0.2960359
0.24669245 -0.26706615 -0.29335183
0.24662028 -0.26822084 -0.2926443
0.245481 -0.26744112 -0.2897999
0.24434218 -0.26664412 -0.28696442
0.24329197 -0.26599106 -0.2843137
0.2432213 -0.26712185 -0.2836208
0.2422603 -0.26660845 -0.2811584
0.24121296 -0.26591957 -0.27853134
0.24114318 -0.26703605 -0.27784723
0.2402739 -0.26665545 -0.27558306
0.2393165 -0.26609534 -0.27315107
0.23924753 -0.26719886 -0.2724749
0.23820345 -0.26645136 -0.26988268
0.23733675 -0.26602527 -0.2676457
0.23638305 -0.2654188 -0.2652444
0.23631535 -0.2665019 -0.26458076
0.23536298 -0.265875 -0.2621921
0.23449904 -0.26540458 -0.25998223
0.23443216 -0.26647472 -0.25932652
0.2334828 -0.26581627 -0.25696015
0.23244596 -0.2649704 -0.2544312
0.23237996 -0.26602623 -0.25378427
0.23151925 -0.2655047 -0.25160584
0.23048554 -0.26462448 -0.24910071
0.22962649 -0.2640771 -0.24693821
0.22956173 -0.26511312 -0.2463034
0.22861658 -0.2643711 -0.24398537
0.22784756 -0.26397097 -0.24201012
0.22778358 -0.2649947 -0.24138282
0.22692758 -0.2643982 -0.2392504
0.22615938 -0.26396817 -0.23729058
0.22609612 -0.26498032 -0.23667039
0.22524199 -0.26435375 -0.23455638
0.22447646 -0.26389763 -0.23261543
0.22371072 -0.26342866 -0.23067947
0.22364852 -0.26442376 -0.23006973
0.22279881 -0.2637594 -0.22798465
0.22212157 -0.263446 -0.22622804
0.22206005 -0.2644302 -0.22562501
0.22129798 -0.26391953 -0.22371757
0.22053656 -0.26339793 -0.22181685
0.22047573 -0.2643712 -0.2212205
0.2198028 -0.26402217 -0.21949162
0.2190431 -0.26347405 -0.21760727
0.21828482 -0.2629166 -0.21573094
0.21822497 -0.2638741 -0.2151442
0.21755351 -0.26348877 -0.21343537
0.2167968 -0.26290452 -0.21157517
0.2167376 -0.26385182 -0.21099472
0.21606833 -0.26344335 -0.20930214
0.21548621 -0.2632184 -0.20777284
0.21542756 -0.26415682 -0.20719783
0.21475977 -0.2637252 -0.2055195
0.21409257 -0.2632839 -0.20384698
0.21351288 -0.2630302 -0.20233712
0.21345508 -0.263955 -0.20177045
0.21278991 -0.26349187 -0.20011322
0.21221098 -0.26321566 -0.19861528
0.21215375 -0.26413158 -0.19805406
0.21157673 -0.26384574 -0.1965657
0.21091357 -0.26335058 -0.19492814
0.21085688 -0.26425764 -0.19437236
0.21028003 -0.26394796 -0.19289488
0.20970428 -0.26363143 -0.1914235
0.20912902 -0.26330674 -0.1899571
0.20907311 -0.26420152 -0.18940884
0.20841284 -0.26366073 -0.18779933
0.20783955 -0.2633164 -0.18634702
0.20778418 -0.2642023 -0.1858042
0.2072104 -0.26384267 -0.18435723
0.20663844 -0.26347792 -0.1829175
0.20658359 -0.26435566 -0.1823797
0.20601174 -0.2639771 -0.1809464
0.20544106 -0.26359197 -0.17951924
0.20487024 -0.26319706 -0.17809597
0.20481615 -0.2640625 -0.1775657
0.20433208 -0.26386738 -0.17629752
0.20376249 -0.26345265 -0.17488636
0.20370887 -0.2643106 -0.17436068
0.20322591 -0.26409772 -0.17310336
0.20265757 -0.26366326 -0.17170438
0.20260443 -0.26451367 -0.17118329
0.20203683 -0.26406687 -0.16979177
0.20164116 -0.26404563 -0.1686946
0.20107523 -0.26358566 -0.1673135
0.20102276 -0.26442516 -0.1667991
0.20045689 -0.26395106 -0.16542435
0.20006257 -0.2639081 -0.16434057
0.20001054 -0.26474077 -0.16383035
0.19953129 -0.26446855 -0.16260946
0.19913788 -0.26441115 -0.16153443
0.19908622 -0.2652377 -0.16102798
0.198608 -0.26494905 -0.15981707
0.19821545 -0.26487738 -0.15875085
0.19773878 -0.26457775 -0.15754911
0.19768772 -0.26539472 -0.15704852
0.19729611 -0.2653087 -0.15599108
0.19681974 -0.2649908 -0.15479818
0.19676906 -0.26580164 -0.15430135
0.19637911 -0.26570338 -0.15325397
0.19598956 -0.26559985 -0.15220998
0.19568294 -0.2657137 -0.15130271
0.19563274 -0.26651704 -0.15081048
0.19515921 -0.26617014 -0.14963824
0.19468696 -0.26581877 -0.14847158
0.19463718 -0.2666153 -0.1479835
0.19433258 -0.26671228 -0.14708926
0.19386059 -0.26634324 -0.145931
0.19381115 -0.2671343 -0.14544629
0.19342363 -0.26698762 -0.1444269
0.19295388 -0.26660568 -0.14328058
0.19256738 -0.26644823 -0.1422687
0.1925185 -0.26723042 -0.14178942
0.19204918 -0.2668306 -0.1406522
0.19166389 -0.26665974 -0.1396496
0.19161539 -0.26743582 -0.13917406
0.19123189 -0.26726046 -0.13817847
0.19084905 -0.26708055 -0.13718666
0.19080088 -0.26785123 -0.13671444
0.19050157 -0.26790145 -0.1358555
0.19012077 -0.26771224 -0.1348735
0.18974003 -0.2675168 -0.13389438
0.18969233 -0.26828003 -0.13342671
0.18948229 -0.26857132 -0.13271177
0.18927431 -0.26886553 -0.13200139
0.18922678 -0.26962617 -0.1315353
0.1891864 -0.27040777 -0.13108005
0.1889836 -0.27071112 -0.13038011
0.18893614 -0.27147058 -0.12991478
0.18856776 -0.2712784 -0.12896879
0.18821058 -0.27111343 -0.12804228
0.18800724 -0.27140152 -0.12734745
0.18796018 -0.27215454 -0.12688605
0.18809518 -0.27345443 -0.12669426
0.18754426 -0.2726908 -0.12548812
0.18749736 -0.27344117 -0.12502834
0.18785392 -0.27541518 -0.12516084
0.24741209 -0.14708751 -0.3517013
0.24377592 -0.14462376 -0.3425232
0.24370775 -0.1457145 -0.34185484
0.23814933 -0.14120674 -0.32814834
0.23622276 -0.14034478 -0.3230919
0.23615797 -0.14138131 -0.32245675
0.23393835 -0.14016975 -0.3167265
0.23385027 -0.14116484 -0.31604376
0.23304154 -0.14139634 -0.31366214
0.2329781 -0.14241128 -0.31304023
0.23281202 -0.14331593 -0.31217706
0.2318265 -0.14333172 -0.3093911
0.23176354 -0.14433907 -0.30877388
0.23123835 -0.14483868 -0.30707482
0.23034851 -0.14492746 -0.30452678
0.23028615 -0.14592527 -0.30391538
0.22985584 -0.14651014 -0.30244666
0.22942218 -0.1470854 -0.30097276
0.22908488 -0.14776438 -0.2997252
0.229023 -0.14875467 -0.29911843
0.22868404 -0.14942516 -0.2978699
0.22852992 -0.15030606 -0.2970508
0.2284682 -0.1512936 -0.2964457
0.22831503 -0.1521734 -0.29562974
0.22834437 -0.15326819 -0.2952346
0.22828265 -0.15425572 -0.29462948
0.22822204 -0.1552446 -0.29402697
0.22816136 -0.15623339 -0.29342422
0.22819045 -0.15733154 -0.2930269
0.22812869 -0.15831979 -0.29242137
0.2281583 -0.15942076 -0.29202425
0.22827826 -0.16063546 -0.29183233
0.22821638 -0.16162573 -0.29122555
0.2283368 -0.1628454 -0.29103276
0.22854815 -0.16418318 -0.29104483
0.22848605 -0.16517685 -0.29043597
0.22860582 -0.16640379 -0.29023814
0.22881418 -0.16774803 -0.29023898
0.22902505 -0.16909987 -0.29024348
0.22896262 -0.17009898 -0.28963128
0.22926134 -0.17157301 -0.28983024
0.2296498 -0.17317164 -0.29022786
0.22958697 -0.17417684 -0.28961194
0.22988544 -0.17566596 -0.28980362
0.23053803 -0.17763811 -0.29078296
0.2304747 -0.1786514 -0.2901621
0.23121323 -0.18075827 -0.29132494
0.23254648 -0.18369423 -0.2938031
0.23403679 -0.18686976 -0.29661942
0.23397169 -0.18791129 -0.29598123
0.2359868 -0.19185793 -0.2999409
0.23808984 -0.19596219 -0.30407974
0.23802276 -0.19703577 -0.3034219
0.23993134 -0.20091714 -0.30710977
0.24171609 -0.20465393 -0.31051138
0.24164718 -0.20575641 -0.30983585
0.243 -0.20891446 -0.31227213
0.24405925 -0.21166912 -0.31405672
0.24458455 -0.21366157 -0.31466827
0.24451415 -0.21478783 -0.31397817
0.24519283 -0.21702185 -0.31491676
0.24577448 -0.21912402 -0.31563935
0.24570341 -0.2202609 -0.31494275
0.2462798 -0.22237134 -0.31564686
0.2467626 -0.22435106 -0.3161442
0.24725 -0.22634697 -0.3166474
0.24717811 -0.22749722 -0.31594262
0.24765994 -0.22949845 -0.3164277
0.2480539 -0.23137318 -0.31672028
0.24798152 -0.23253118 -0.3160107
0.24854401 -0.2346808 -0.31665856
0.2489398 -0.23657928 -0.31694597
0.2488669 -0.23774569 -0.31623128
0.24925213 -0.23963913 -0.31649107
0.24964009 -0.24154466 -0.31675333
0.24993852 -0.24331433 -0.3168224
0.249865 -0.24449053 -0.3161017
0.25033566 -0.2465487 -0.31653053
0.25071797 -0.24847205 -0.31676903
0.250644 -0.2496559 -0.31604365
0.2510342 -0.2516038 -0.31629372
0.25124615 -0.25326464 -0.3161665
0.2511718 -0.25445426 -0.31543756
0.2514765 -0.25627732 -0.31550094
0.25194085 -0.258375 -0.31589478
0.25239486 -0.26046428 -0.31626296
0.2523198 -0.26166496 -0.31552726
0.25257108 -0.26342204 -0.31546885
0.25253862 -0.2646985 -0.3148202
0.2524634 -0.26590204 -0.31408274
0.25218606 -0.26675573 -0.31292802
0.25163692 -0.2671333 -0.3112147
0.25156203 -0.26833165 -0.31048042
0.25094616 -0.2685799 -0.30863538
0.24990465 -0.26806778 -0.30592197
0.24894239 -0.26767966 -0.3033779
0.24886864 -0.2688595 -0.30265495
0.2477378 -0.26814672 -0.29977718
0.24669193 -0.26756874 -0.29708028
0.24661916 -0.26873296 -0.29636693
0.24548726 -0.26797366 -0.29350653
0.24435589 -0.26719707 -0.29065517
0.24428415 -0.26834494 -0.28995183
0.24324127 -0.26770398 -0.28729078
0.24211366 -0.2668895 -0.28446656
0.24107395 -0.26622018 -0.28182685
0.24100365 -0.2673449 -0.2811377
0.23996514 -0.26665273 -0.27851132
0.23901467 -0.2661097 -0.27606812
0.23894528 -0.2672201 -0.27538773
0.23808317 -0.26682234 -0.27313033
0.23704828 -0.2660806 -0.27053583
0.23697975 -0.26717734 -0.2698638
0.23594543 -0.26641154 -0.26728153
0.23508692 -0.26596943 -0.2650535
0.23414217 -0.26534575 -0.2626617
0.2340749 -0.266422 -0.26200223
0.23321834 -0.26594853 -0.25979346
0.23227571 -0.2652915 -0.25742215
0.23220927 -0.2663548 -0.25677064
0.2312679 -0.26567733 -0.25441188
0.23041415 -0.26515955 -0.25223035
0.23034851 -0.2662099 -0.25158677
0.22940926 -0.26549903 -0.2492485
0.22847176 -0.26477632 -0.24692029
0.22770724 -0.26439002 -0.24493307
0.22764279 -0.2654213 -0.24430117
0.2267065 -0.2646642 -0.24199145
0.22594377 -0.26424924 -0.24002178
0.22588009 -0.2652682 -0.2393974
0.22503303 -0.26465946 -0.23727448
0.22427201 -0.26421642 -0.23532191
0.22420906 -0.2652238 -0.23470466
0.22344998 -0.26476628 -0.23276384
0.22269158 -0.2642978 -0.23082976
0.22184789 -0.26363596 -0.2287395
0.221786 -0.2646263 -0.2281327
0.22102842 -0.26412788 -0.22621398
0.22035928 -0.2638071 -0.22446708
0.22029802 -0.26478717 -0.22386655
0.21945637 -0.2640763 -0.22180349
0.21870214 -0.26354176 -0.21991
0.21864161 -0.2645102 -0.21931659
0.21788844 -0.26395932 -0.21743321
0.21722253 -0.26358816 -0.21571738
0.21655719 -0.2632074 -0.21400739
0.2164976 -0.26416087 -0.21342316
0.21574676 -0.26357323 -0.21156242
0.21508296 -0.2631679 -0.20986748
0.21502401 -0.2641111 -0.20928952
0.21444677 -0.26388478 -0.20776056
0.21369871 -0.26326212 -0.20592293
0.2130375 -0.26282454 -0.2042494
0.21297945 -0.2637534 -0.20368023
0.21240468 -0.26349765 -0.2021711
0.21183044 -0.2632337 -0.200667
0.21177289 -0.26415437 -0.20010284
0.21111342 -0.26367864 -0.19845086
0.2105405 -0.26339355 -0.19695973
0.2104835 -0.26430538 -0.19640101
0.20991135 -0.26400796 -0.19491741
0.20933913 -0.263701 -0.19343776
0.20868278 -0.26318568 -0.19181189
0.2086266 -0.26408452 -0.19126114
0.20805626 -0.26375777 -0.1897955
0.20748705 -0.26342428 -0.18833594
0.20743138 -0.26431492 -0.18779019
0.20686235 -0.26396772 -0.18633711
0.2062938 -0.26361233 -0.18488905
0.20623866 -0.2644948 -0.18434832
0.20558609 -0.26392034 -0.18275893
0.20510364 -0.2637513 -0.18147227
0.20453757 -0.26336882 -0.18004292
0.20448318 -0.264239 -0.17950971
0.2038326 -0.26363325 -0.1779396
0.2033524 -0.2634398 -0.17666996
0.20329854 -0.26430184 -0.17614175
0.20273386 -0.26388505 -0.17473136
0.20225477 -0.2636739 -0.17347258
0.20220137 -0.2645284 -0.17294899
0.20163795 -0.26409185 -0.17155072
0.20115997 -0.26386294 -0.17030282
0.20068243 -0.2636272 -0.16905908
0.20062971 -0.2644708 -0.16854219
0.20006867 -0.26400873 -0.1671618
0.19950815 -0.26353848 -0.16578646
0.19945595 -0.2643739 -0.16527458
0.19906418 -0.26432765 -0.16419008
0.19867279 -0.26427594 -0.16310893
0.19862092 -0.26510587 -0.1626004
0.19814686 -0.26482767 -0.16138507
0.1976725 -0.26454073 -0.16017267
0.19728309 -0.26447037 -0.15910529
0.19723181 -0.26529077 -0.1586026
0.19675921 -0.2649894 -0.15740146
0.1963707 -0.26490474 -0.15634285
0.19631982 -0.265719 -0.15584391
0.19593182 -0.2656262 -0.15479033
0.1955442 -0.26552796 -0.15374014
0.19549365 -0.26633677 -0.15324455
0.19510654 -0.26623043 -0.1521994
0.19472057 -0.2661207 -0.15115885
0.1942501 -0.26577336 -0.14998387
0.19420011 -0.26657328 -0.14949372
0.19381513 -0.2664495 -0.14846209
0.1934297 -0.2663182 -0.14743255
0.19338004 -0.2671127 -0.14694574
0.19291218 -0.26674205 -0.14578816
0.19252864 -0.26659924 -0.144769
0.19247937 -0.26738757 -0.14428596
0.19201279 -0.2670014 -0.14313883
0.19163057 -0.2668455 -0.14212911
0.19124678 -0.2666786 -0.14111961
0.19119807 -0.2674581 -0.14064197
0.19073471 -0.26705474 -0.13951151
0.19035324 -0.2668777 -0.1385131
0.19030492 -0.26765114 -0.1380392
0.18992542 -0.26747012 -0.13704805
0.18962848 -0.2675215 -0.13618833
0.18958044 -0.26829016 -0.13571735
0.18920302 -0.26810002 -0.13473606
0.1888256 -0.26790348 -0.13375756
0.18861717 -0.26819575 -0.13304223
0.18856955 -0.2689577 -0.13257535
0.18836342 -0.26925203 -0.13186559
0.188323 -0.27003372 -0.13141039
0.18827546 -0.27079442 -0.1309443
0.18806978 -0.271084 -0.13023789
0.18770958 -0.27090877 -0.1292987
0.18766229 -0.2716656 -0.12883496
0.18730919 -0.27150252 -0.12791048
0.18710725 -0.27178958 -0.12721567
0.1872424 -0.27309433 -0.12702726
0.18719524 -0.27384886 -0.12656493
0.18667458 -0.2731604 -0.12539725
0.18701975 -0.27510974 -0.1255197
0.18697263 -0.2758636 -0.12505779
0.24614261 -0.14653353 -0.35218397
0.2460728 -0.14765057 -0.35149953
0.24246816 -0.14517356 -0.34232616
0.23695575 -0.14068587 -0.32860216
0.2368901 -0.14173613 -0.32795864
0.23497999 -0.14086725 -0.32290465
0.23277844 -0.13966358 -0.31716755
0.23271467 -0.1406842 -0.31654215
0.2326268 -0.1416792 -0.31585944
0.23182465 -0.14190793 -0.3134788
0.23165943 -0.14281295 -0.3126153
0.23159605 -0.14382714 -0.31199387
0.23061873 -0.1438395 -0.30920917
0.23009741 -0.14434078 -0.30750865
0.23003468 -0.14534472 -0.3068935
0.22915217 -0.14543042 -0.30434653
0.22872497 -0.14601664 -0.30287665
0.22829445 -0.14659326 -0.30140156
0.22823243 -0.14758559 -0.3007935
0.22789758 -0.14826354 -0.29954633
0.22756095 -0.14893506 -0.2982969
0.22749919 -0.14992328 -0.29769138
0.2273459 -0.15080383 -0.2968724
0.22719352 -0.15168397 -0.29605618
0.22713184 -0.15267083 -0.2954515
0.22716036 -0.15376596 -0.29505622
0.22709975 -0.15475485 -0.29445368
0.22703907 -0.15574361 -0.29385093
0.22697735 -0.15673116 -0.29324582
0.22700562 -0.15782967 -0.29284838
0.22703445 -0.15893032 -0.2924516
0.22697265 -0.15991922 -0.29184565
0.22709097 -0.16113462 -0.29165345
0.22720985 -0.16235362 -0.29146126
0.22714788 -0.16334525 -0.29085365
0.22735678 -0.16468406 -0.29086533
0.22747499 -0.1659103 -0.2906681
0.22768107 -0.16725354 -0.29066983
0.22761875 -0.16825062 -0.29005888
0.22782716 -0.16960348 -0.29006302
0.2281228 -0.17107616 -0.29026315
0.22806019 -0.17207798 -0.2896493
0.2284446 -0.17367832 -0.2900463
0.22873999 -0.1751661 -0.29023916
0.22867699 -0.17617401 -0.28962156
0.22932313 -0.17814888 -0.2905999
0.2300548 -0.18025275 -0.29176542
0.23137611 -0.18318349 -0.29424807
0.23131174 -0.18421334 -0.29361704
0.23278801 -0.18739475 -0.29643127
0.2347853 -0.1913336 -0.30039775
0.23471923 -0.19239084 -0.29974994
0.23680267 -0.19650334 -0.30388582
0.23869433 -0.2003773 -0.3075801
0.2386263 -0.20146582 -0.30691314
0.24039426 -0.20520964 -0.31031224
0.24173486 -0.20836236 -0.31275317
0.24278441 -0.21111278 -0.31454146
0.2427143 -0.21223456 -0.3138541
0.24323419 -0.21422927 -0.31446484
0.24390641 -0.21646048 -0.3154059
0.24383566 -0.21759243 -0.3147123
0.24441138 -0.21969707 -0.315434
0.2449822 -0.22180508 -0.31614023
0.24491084 -0.22294688 -0.31544062
0.24538861 -0.22492872 -0.3159372
0.24587092 -0.22692676 -0.31643963
0.24634793 -0.22892593 -0.31692654
0.24627578 -0.23008038 -0.31621915
0.24666551 -0.23195688 -0.3165111
0.2472225 -0.23410413 -0.31716102
0.24714983 -0.23526695 -0.3164485
0.24754134 -0.23716724 -0.31673527
0.2479226 -0.23905896 -0.31699657
0.24784948 -0.24022885 -0.31627974
0.24823323 -0.24213615 -0.31654137
0.24852827 -0.24390721 -0.31660995
0.24899422 -0.2459633 -0.31704056
0.24892044 -0.2471437 -0.3163173
0.24929857 -0.2490688 -0.31655517
0.24968475 -0.25101495 -0.3168068
0.24961054 -0.25220233 -0.31607923
0.24981987 -0.2538643 -0.3159516
0.25012124 -0.25568593 -0.31601623
0.25004673 -0.2568784 -0.31528553
0.25050613 -0.2589782 -0.31567863
0.25095528 -0.2610695 -0.31604606
0.2512037 -0.26282534 -0.31598875
0.2511285 -0.26402855 -0.3152515
0.25109565 -0.2653052 -0.3146028
0.25082007 -0.26615962 -0.3134474
0.25074497 -0.2673616 -0.31271088
0.25020018 -0.26773736 -0.3109982
0.24958906 -0.2679877 -0.30915138
0.24951442 -0.26918185 -0.30841967
0.24848184 -0.268666 -0.3057076
0.24752775 -0.26827437 -0.30316478
0.24640617 -0.26756564 -0.3002835
0.24633294 -0.26873738 -0.29956552
0.24529606 -0.26815557 -0.29687
0.24417345 -0.26740032 -0.29400608
0.2441012 -0.2685564 -0.2932977
0.24297963 -0.26777565 -0.29044783
0.24194528 -0.26713845 -0.28778353
0.24082696 -0.26632804 -0.2849558
0.24075621 -0.26746023 -0.28426206
0.23972547 -0.26678714 -0.2816237
0.23869546 -0.26609868 -0.27899408
0.23862565 -0.26721585 -0.27830952
0.23768337 -0.26666942 -0.27586752
0.23682824 -0.26627472 -0.27360746
0.23675923 -0.26737896 -0.27293086
0.23573333 -0.26663345 -0.27033773
0.23470758 -0.26587135 -0.26775217
0.23385602 -0.26543227 -0.26552153
0.23378833 -0.26651537 -0.26485786
0.23285176 -0.26588827 -0.26246727
0.23200218 -0.2654178 -0.26025587
0.2319353 -0.26648796 -0.25960016
0.23100084 -0.26582748 -0.25723007
0.23006725 -0.2651534 -0.2548684
0.23000121 -0.2662099 -0.25422102
0.22915483 -0.265689 -0.25204062
0.22822332 -0.26498154 -0.24969943
0.22729357 -0.26426217 -0.24736826
0.22722878 -0.26529887 -0.24673302
0.22647081 -0.26490986 -0.24474677
0.22554228 -0.26415616 -0.24243411
0.22547826 -0.2651806 -0.2418064
0.22472207 -0.26476288 -0.2398377
0.22388197 -0.26415718 -0.23771213
0.22381867 -0.26516998 -0.23709154
0.22306423 -0.26472422 -0.23513994
0.22231135 -0.26426938 -0.23319677
0.22155917 -0.26380363 -0.23126031
0.2214969 -0.2648001 -0.23064975
0.22066054 -0.26413515 -0.2285606
0.21990919 -0.26363945 -0.22663952
0.21984763 -0.2646243 -0.22603607
0.21918422 -0.26430112 -0.22429004
0.21834953 -0.26359332 -0.22222431
0.21828867 -0.26456726 -0.22162755
0.217541 -0.26402992 -0.21973506
0.21679404 -0.26348174 -0.21784933
0.21613353 -0.26311296 -0.21613142
0.21607365 -0.26407117 -0.2155443
0.21541403 -0.26368803 -0.21383515
0.2146694 -0.2631031 -0.21197206
0.21461016 -0.26405105 -0.2113912
0.2139521 -0.26364335 -0.20969708
0.2133795 -0.26341906 -0.20816635
0.2133208 -0.26435816 -0.20759092
0.2125793 -0.26373276 -0.20575427
0.21192381 -0.26329276 -0.2040816
0.21135369 -0.26303902 -0.2025707
0.21129589 -0.26396382 -0.20200405
0.21072656 -0.26369777 -0.20050068
0.2100725 -0.2632244 -0.19884664
0.21001527 -0.26414034 -0.19828542
0.20944725 -0.2638532 -0.19679502
0.20887974 -0.2635578 -0.19530964
0.20882301 -0.26446554 -0.19475344
0.2082557 -0.2641565 -0.19327453
0.2076051 -0.26363873 -0.19164954
0.20703939 -0.26331404 -0.19018212
0.20698348 -0.2642088 -0.18963386
0.20641917 -0.26387322 -0.18817505
0.20585479 -0.26352805 -0.1867202
0.20579937 -0.26441464 -0.18617697
0.20523573 -0.26405716 -0.18472964
0.20458862 -0.26348504 -0.18313819
0.20453377 -0.26436275 -0.18260038
0.20405541 -0.264192 -0.18131435
0.20349424 -0.26380745 -0.17988573
0.20284908 -0.26320407 -0.17831355
0.20279498 -0.26406947 -0.17778328
0.20231889 -0.26387435 -0.17651424
0.20175886 -0.2634596 -0.17510207
0.20170525 -0.2643175 -0.17457637
0.20123026 -0.26410463 -0.1733182
0.2006715 -0.26367012 -0.1719182
0.20061834 -0.26452053 -0.1713971
0.20014447 -0.26428992 -0.17014982
0.19967102 -0.26405242 -0.1689067
0.1991146 -0.2635924 -0.16752456
0.19906214 -0.2644319 -0.16701016
0.19850653 -0.2639596 -0.16563556
0.19811787 -0.2639147 -0.16454989
0.19806583 -0.26474738 -0.16403967
0.19767772 -0.26469427 -0.16295902
0.19720756 -0.26441777 -0.16174221
0.1971559 -0.2652443 -0.16123575
0.19668561 -0.26495564 -0.160024
0.19629948 -0.26488394 -0.1589571
0.19583073 -0.26458424 -0.15775448
0.19577968 -0.2654012 -0.15725388
0.19539446 -0.26531518 -0.15619576
0.19500954 -0.26522374 -0.15514098
0.19495884 -0.26603523 -0.15464374
0.19457449 -0.26593566 -0.15359405
0.19419049 -0.26583067 -0.15254769
0.19380759 -0.2657223 -0.15150599
0.19375739 -0.26652566 -0.15101375
0.19329102 -0.26617658 -0.14983937
0.19290912 -0.26605415 -0.14880656
0.1928593 -0.2668514 -0.14831807
0.19247715 -0.2667187 -0.14728904
0.19201313 -0.26634973 -0.14612998
0.1919637 -0.26714084 -0.14564526
0.19158342 -0.26699662 -0.14462662
0.19112071 -0.2666121 -0.143478
0.19074161 -0.2664576 -0.1424671
0.19069272 -0.26723978 -0.1419878
0.19031218 -0.26707155 -0.1409788
0.18985267 -0.26666984 -0.13984686
0.18980417 -0.26744595 -0.13937132
0.18942596 -0.26726758 -0.13837339
0.18904956 -0.26708794 -0.13738106
0.1890014 -0.2678586 -0.13690884
0.1887069 -0.26790896 -0.13604948
0.18833254 -0.26772016 -0.13506703
0.1879582 -0.26752496 -0.13408735
0.1879105 -0.2682882 -0.13361968
0.18770364 -0.2685798 -0.13290459
0.18749899 -0.2688748 -0.13219425
0.18745144 -0.26963544 -0.13172817
0.18741097 -0.27041718 -0.13127299
0.18720676 -0.27070743 -0.13056602
0.1871593 -0.27146682 -0.13010071
0.1868022 -0.27129027 -0.12916198
0.18645196 -0.27112845 -0.12823641
0.18625146 -0.27141613 -0.12754105
0.18620439 -0.27216917 -0.12707964
0.18633775 -0.27347466 -0.12689097
0.18582153 -0.27278817 -0.12572159
0.18577462 -0.27353877 -0.12526166
0.1861159 -0.2754897 -0.12538353
0.24387133 -0.14615178 -0.34971863
0.24232484 -0.14575268 -0.34545615
0.24225616 -0.14685164 -0.34478277
0.23609018 -0.14162377 -0.32936445
0.23421247 -0.1407824 -0.32434374
0.2341475 -0.14182203 -0.32370672
0.23243593 -0.14111352 -0.31910488
0.23191114 -0.14164811 -0.31736803
0.230937 -0.14169104 -0.31455556
0.23087345 -0.14270799 -0.31393242
0.23053244 -0.14342147 -0.31264508
0.22947085 -0.14333653 -0.30963713
0.22940789 -0.14434387 -0.3090199
0.2287114 -0.14464298 -0.30689263
0.22792363 -0.14482908 -0.3045526
0.22786132 -0.14582618 -0.30394167
0.22734734 -0.14630741 -0.30225888
0.22674234 -0.14667663 -0.30036363
0.22640894 -0.14735167 -0.29911482
0.22634722 -0.14833921 -0.29850972
0.22592404 -0.1489022 -0.29705197
0.22577265 -0.14978074 -0.29623693
0.22571114 -0.15076487 -0.2956339
0.22546971 -0.15153325 -0.29460835
0.22549859 -0.15262498 -0.29421788
0.22543712 -0.15360843 -0.29361528
0.22537513 -0.15459122 -0.29301143
0.22522476 -0.15546519 -0.2922014
0.22525261 -0.15655862 -0.29180726
0.22519115 -0.15754206 -0.29120466
0.22512966 -0.15852548 -0.290602
0.22533587 -0.15984733 -0.2906204
0.22527428 -0.1608328 -0.29001656
0.22539178 -0.16204767 -0.28982696
0.22542104 -0.16315173 -0.2894323
0.22535932 -0.16413927 -0.28882718
0.22556415 -0.16547476 -0.28883573
0.22559203 -0.16658218 -0.2884356
0.22579767 -0.16792609 -0.28844282
0.22573565 -0.16891837 -0.28783482
0.226117 -0.17050411 -0.2882412
0.22649832 -0.17209713 -0.28864428
0.22643588 -0.1730962 -0.2880321
0.22672883 -0.17457975 -0.28822917
0.22702041 -0.17606738 -0.28842065
0.22695763 -0.17707188 -0.28780514
0.2273391 -0.17869309 -0.28819644
0.22814496 -0.18091439 -0.28954476
0.22919588 -0.1834945 -0.29144043
0.22913194 -0.18451758 -0.29081357
0.23102713 -0.1883258 -0.2945983
0.23306611 -0.19237241 -0.29869214
0.23300023 -0.19342667 -0.29804614
0.23499602 -0.1974636 -0.30202028
0.23689683 -0.20139691 -0.30576697
0.236829 -0.20248213 -0.305102
0.23857738 -0.2062406 -0.30848724
0.23963727 -0.20901045 -0.3103264
0.24042058 -0.21138754 -0.31154254
0.24035093 -0.212502 -0.31085968
0.24111524 -0.21487203 -0.3120244
0.24177796 -0.21710233 -0.3129583
0.24170755 -0.21822888 -0.31226802
0.24227472 -0.22033148 -0.31298327
0.24257924 -0.22204056 -0.31311578
0.24305744 -0.22402483 -0.31362715
0.24298628 -0.22516343 -0.31292948
0.24346195 -0.22715768 -0.31342924
0.24384798 -0.22902027 -0.31372905
0.24377634 -0.23016666 -0.3130266
0.24415818 -0.23203419 -0.31331223
0.24462734 -0.23404911 -0.3137844
0.24455522 -0.23520319 -0.31307724
0.24502318 -0.23722997 -0.31354076
0.24539918 -0.23911661 -0.3138013
0.24577728 -0.24101439 -0.31406307
0.24570446 -0.24217962 -0.3133491
0.24624896 -0.24436358 -0.3139641
0.24670848 -0.24641712 -0.31439185
0.2466351 -0.24759129 -0.3136724
0.24675879 -0.24909575 -0.31337494
0.24696468 -0.25074205 -0.3132518
0.24689105 -0.25191996 -0.31253004
0.2471028 -0.2535835 -0.31241626
0.2475666 -0.25568298 -0.31283632
0.24803562 -0.2578008 -0.31326348
0.24796134 -0.25898933 -0.3125352
0.2484837 -0.2612138 -0.31306908
0.24897987 -0.263403 -0.3135432
0.24890502 -0.26460066 -0.31280935
0.24879538 -0.265737 -0.31200227
0.24859644 -0.26671463 -0.31100792
0.24852167 -0.26791108 -0.3102748
0.24816138 -0.26859686 -0.30894417
0.24730617 -0.26838827 -0.30658177
0.2463625 -0.2680064 -0.30404085
0.24628869 -0.26918766 -0.30331707
0.24517563 -0.26847407 -0.30043402
0.24423572 -0.26805958 -0.29791802
0.24416284 -0.26922587 -0.2972034
0.24296309 -0.26830798 -0.29416028
0.24185161 -0.26753438 -0.29130784
0.24177979 -0.2686836 -0.29060364
0.24066848 -0.2678829 -0.28776342
0.23955874 -0.2670669 -0.2849343
0.2385363 -0.26639783 -0.2822919
0.23846595 -0.26752326 -0.2816023
0.23744476 -0.2668314 -0.27897328
0.23651013 -0.26628894 -0.27652782
0.23644067 -0.26740003 -0.27584702
0.23550728 -0.26683706 -0.27341402
0.23448902 -0.26609355 -0.27081585
0.23442048 -0.2671903 -0.2701438
0.2334892 -0.26659238 -0.267732
0.23264498 -0.26615092 -0.26550207
0.23171604 -0.26552778 -0.26310796
0.23164873 -0.26660472 -0.26244804
0.23072039 -0.2659597 -0.26006505
0.2297943 -0.26530388 -0.25769326
0.22972785 -0.2663672 -0.25704172
0.22880164 -0.2656881 -0.25467968
0.22796291 -0.2651717 -0.252498
0.22789726 -0.26622206 -0.25185442
0.22697389 -0.265511 -0.24951428
0.22622147 -0.26513717 -0.2475183
0.22529973 -0.26440027 -0.24519415
0.22523528 -0.26543155 -0.24456225
0.22448538 -0.2650306 -0.24258533
0.22365059 -0.26443908 -0.24044746
0.22358687 -0.26545873 -0.23982267
0.22283791 -0.2650281 -0.2378613
0.22209048 -0.26458827 -0.23590828
0.22202744 -0.26559702 -0.23529018
0.22128017 -0.26513895 -0.2333455
0.22044991 -0.26448983 -0.23124564
0.21970491 -0.2640111 -0.22931641
0.21964294 -0.2650028 -0.22870877
0.21898331 -0.2646916 -0.22695185
0.21823998 -0.26418623 -0.22503895
0.21817863 -0.26516765 -0.22443758
0.21735208 -0.26445997 -0.22237372
0.21661054 -0.2639267 -0.22047804
0.21654992 -0.26489657 -0.21988378
0.2158094 -0.26434696 -0.21799818
0.21515375 -0.26397535 -0.21627882
0.21441467 -0.2634048 -0.21440634
0.21435504 -0.26435894 -0.2138217
0.21370175 -0.26396462 -0.21211897
0.21304847 -0.2635594 -0.210421
0.21298943 -0.264504 -0.2098422
0.21233766 -0.26408577 -0.20815408
0.21168642 -0.26365787 -0.20647177
0.21095224 -0.2630269 -0.20463963
0.21089415 -0.26395646 -0.20407005
0.21032892 -0.26370135 -0.2025595
0.20968024 -0.2632412 -0.20089854
0.2096227 -0.26416188 -0.20033439
0.20905823 -0.2638843 -0.19883578
0.20841102 -0.26340097 -0.19718903
0.20835403 -0.2643128 -0.19663031
0.20787513 -0.26421556 -0.19529898
0.20722933 -0.2637097 -0.19366603
0.20666775 -0.2633959 -0.1921914
0.20661154 -0.26429543 -0.19164024
0.20596722 -0.26376647 -0.19002154
0.20540696 -0.2634315 -0.18855989
0.2053513 -0.26432213 -0.18801415
0.2047918 -0.2639749 -0.18656005
0.20423284 -0.26361948 -0.18511094
0.20417769 -0.26450196 -0.18457022
0.20353626 -0.2639274 -0.18297963
0.20297924 -0.26355237 -0.18154459
0.20250526 -0.26337582 -0.1802617
0.20245087 -0.26424602 -0.1797285
0.20189446 -0.26384965 -0.17830448
0.20133923 -0.26344675 -0.17688668
0.20128535 -0.26430875 -0.17635848
0.20081377 -0.26410505 -0.17509425
0.20025912 -0.26368076 -0.1736874
0.20020571 -0.26453528 -0.17316382
0.1996525 -0.26410037 -0.17176567
0.19918185 -0.26386973 -0.17051573
0.19862962 -0.26341918 -0.16912721
0.19857693 -0.26426208 -0.16861074
0.19810805 -0.2640154 -0.16737282
0.19763958 -0.26376194 -0.16613913
0.19758733 -0.264598 -0.16562684
0.1971195 -0.26433426 -0.16439937
0.1967345 -0.26428258 -0.16331756
0.19668263 -0.2651125 -0.16280904
0.19621582 -0.26483238 -0.16159163
0.19575012 -0.2645473 -0.16037959
0.1953671 -0.26447693 -0.1593115
0.19531584 -0.26529732 -0.15880881
0.1949326 -0.2652169 -0.15774456
0.19455111 -0.26513478 -0.15668604
0.19450018 -0.26594973 -0.1561867
0.19403657 -0.26563275 -0.15499438
0.19365531 -0.2655345 -0.1539435
0.19360477 -0.2663433 -0.15344791
0.19322403 -0.2662369 -0.15240206
0.1928444 -0.26612717 -0.15136082
0.19246441 -0.26601002 -0.15032175
0.19241437 -0.26681066 -0.14983118
0.1920349 -0.2666853 -0.14879715
0.19165577 -0.26655456 -0.14776647
0.19160607 -0.26734972 -0.14727925
0.19114609 -0.26697966 -0.14612037
0.19076884 -0.26683742 -0.14510004
0.19071953 -0.2676264 -0.14461659
0.19026084 -0.2672409 -0.14346817
0.18988393 -0.2670827 -0.14245568
0.18942747 -0.26668835 -0.14131755
0.18937875 -0.2674679 -0.1408399
0.1889212 -0.26705825 -0.13970514
0.188628 -0.26712024 -0.13883735
0.18857963 -0.26789436 -0.13836305
0.18820643 -0.26771408 -0.13737084
0.18791568 -0.26777038 -0.1365125
0.1878676 -0.26853973 -0.13604109
0.1874149 -0.26810825 -0.13492975
0.18704395 -0.26791218 -0.13395083
0.18683872 -0.26820484 -0.13323535
0.18679109 -0.2689668 -0.13276847
0.1866668 -0.2694981 -0.13218166
0.18654795 -0.2700444 -0.131604
0.1865004 -0.2708051 -0.1311379
0.1863026 -0.27110934 -0.13043863
0.18594994 -0.27093878 -0.12950112
0.18590263 -0.27169567 -0.12903735
0.18555036 -0.27151713 -0.1281044
0.18535173 -0.27180526 -0.12740979
0.18549526 -0.27314672 -0.12723991
0.1854481 -0.27390134 -0.12677751
0.18500651 -0.27343044 -0.1257152
0.18525122 -0.27509105 -0.1256972
0.18520412 -0.27584484 -0.12523533
0.24408391 -0.14710289 -0.35381392
0.24401385 -0.14822409 -0.35312694
0.24001406 -0.14527895 -0.34282857
0.23603855 -0.1422958 -0.33261684
0.2359722 -0.1433577 -0.33196616
0.23332487 -0.14168645 -0.3250299
0.23189685 -0.14127456 -0.32107687
0.23183236 -0.14230657 -0.32044452
0.23095292 -0.14245582 -0.31783602
0.22989732 -0.14239962 -0.31480667
0.22929263 -0.14282309 -0.3128745
0.22922924 -0.14383729 -0.31225306
0.22817512 -0.14374614 -0.30924308
0.22748397 -0.14404681 -0.3071139
0.22742136 -0.14504871 -0.3065
0.22655046 -0.14512907 -0.30394593
0.22595058 -0.14550748 -0.30204722
0.22526173 -0.1457742 -0.2999393
0.22520006 -0.14676107 -0.29933462
0.22477956 -0.14732713 -0.29787368
0.22435951 -0.14788786 -0.2964164
0.22429818 -0.14886926 -0.29581505
0.22405829 -0.14963688 -0.29478952
0.22381854 -0.15040171 -0.2937656
0.22375737 -0.15138039 -0.29316595
0.22360717 -0.15225023 -0.29235566
0.22345622 -0.15311773 -0.29154432
0.22330771 -0.15398675 -0.29073933
0.22324666 -0.15496339 -0.2901409
0.22318496 -0.15593919 -0.2895409
0.22321148 -0.15702643 -0.28914794
0.2231504 -0.15800372 -0.28854913
0.22326636 -0.15920764 -0.2883646
0.22329475 -0.16030164 -0.28797412
0.22323354 -0.16128099 -0.28737405
0.22334976 -0.16249186 -0.28718725
0.22337699 -0.16358879 -0.2867922
0.22349265 -0.16480406 -0.28660184
0.22343123 -0.16578682 -0.28599966
0.22363415 -0.1671233 -0.28600943
0.22392505 -0.1685826 -0.28622058
0.22386333 -0.1695701 -0.2856155
0.22424181 -0.17115763 -0.2860246
0.22444464 -0.17251164 -0.28602648
0.22438258 -0.17350458 -0.28541806
0.22467299 -0.17498684 -0.28561792
0.22505105 -0.17659739 -0.28601584
0.22551116 -0.17833066 -0.2865982
0.22544847 -0.17933376 -0.28598356
0.22607315 -0.18131422 -0.28693518
0.22736691 -0.18426321 -0.28940392
0.22730324 -0.18528214 -0.2887796
0.2287549 -0.18849401 -0.29159158
0.23080574 -0.19260369 -0.29574913
0.23074031 -0.19365075 -0.29510754
0.23315428 -0.19834885 -0.30006135
0.23495682 -0.2021834 -0.30361933
0.23642625 -0.20555355 -0.3064144
0.23635796 -0.2066463 -0.30574483
0.23739138 -0.20939878 -0.3075454
0.23832616 -0.21202056 -0.30911708
0.23825686 -0.21312968 -0.3084375
0.2390099 -0.21549869 -0.3095926
0.23940714 -0.21733354 -0.30994913
0.23933719 -0.21845269 -0.30926338
0.2397241 -0.22028346 -0.30959183
0.24011755 -0.22213231 -0.30993143
0.24058911 -0.2241121 -0.3104404
0.24051845 -0.22524266 -0.30974767
0.24081668 -0.22696048 -0.30986837
0.24119814 -0.22881782 -0.31016958
0.24112709 -0.2299548 -0.30947292
0.24159178 -0.23195848 -0.30995166
0.2419683 -0.23382801 -0.31023335
0.24189676 -0.23497267 -0.309532
0.24227159 -0.23685099 -0.30980492
0.24281396 -0.23901385 -0.31043962
0.2432684 -0.24104132 -0.3108785
0.24319609 -0.24219844 -0.3101695
0.24364972 -0.24423823 -0.3106007
0.243937 -0.2460065 -0.3106679
0.24386425 -0.24717054 -0.30995467
0.24406148 -0.24879476 -0.30982366
0.24418287 -0.25029373 -0.30952734
0.2441099 -0.25146145 -0.30881184
0.24465814 -0.25370416 -0.30942905
0.2451314 -0.25582734 -0.30988103
0.24584416 -0.2583786 -0.31084082
0.2457702 -0.2595617 -0.31011587
0.24628313 -0.26178086 -0.31064108
0.24627545 -0.26308665 -0.31005484
0.24620119 -0.2642749 -0.30932674
0.24658489 -0.26628375 -0.30956903
0.24639258 -0.26726344 -0.30858952
0.24631815 -0.2684544 -0.30785978
0.24571584 -0.26868558 -0.30601758
0.24503545 -0.2687648 -0.30401513
0.24393146 -0.26805568 -0.3011278
0.2438581 -0.2692295 -0.30040854
0.24292502 -0.26880988 -0.29789066
0.24173641 -0.26789916 -0.29484564
0.24166404 -0.2690573 -0.294136
0.24056126 -0.26827827 -0.29128242
0.23954432 -0.2676431 -0.28861496
0.23835781 -0.26666933 -0.28560328
0.23828696 -0.2678029 -0.28490868
0.23727407 -0.26713192 -0.2822684
0.23626058 -0.266443 -0.27963418
0.23619068 -0.2675616 -0.27894878
0.23526478 -0.26701763 -0.27650538
0.23433846 -0.2664575 -0.2740677
0.23426941 -0.26756242 -0.27339068
0.23326065 -0.2668169 -0.27079454
0.23233707 -0.26622307 -0.2683794
0.23141438 -0.26561558 -0.26597255
0.23134664 -0.2666994 -0.26530847
0.2304258 -0.26607263 -0.26291543
0.2295052 -0.26543102 -0.2605295
0.22943832 -0.26650116 -0.25987375
0.22860426 -0.26601225 -0.25767213
0.22768636 -0.26533848 -0.25530794
0.22762029 -0.26639566 -0.25466016
0.22670372 -0.2657014 -0.25230852
0.2258724 -0.26516816 -0.25013405
0.22504187 -0.26462263 -0.24796712
0.22497699 -0.2656607 -0.24733107
0.22414759 -0.26509672 -0.24517539
0.22340386 -0.26469916 -0.24319568
0.2233397 -0.2657256 -0.24256672
0.22251219 -0.26513165 -0.2404295
0.22177023 -0.2647061 -0.23846695
0.2217068 -0.26572096 -0.23784511
0.22096512 -0.26527748 -0.23589112
0.22022484 -0.2648246 -0.23394531
0.21948525 -0.26436082 -0.23200616
0.21942286 -0.2653593 -0.23139435
0.21868429 -0.26487914 -0.22946523
0.21794638 -0.264388 -0.2275428
0.21788466 -0.26537555 -0.22693768
0.2171478 -0.2648681 -0.22502531
0.21641164 -0.2643497 -0.22311965
0.2163506 -0.26532635 -0.2225212
0.21561547 -0.26479164 -0.22062561
0.21488106 -0.26424608 -0.21873677
0.21414737 -0.26368967 -0.21685469
0.21408735 -0.26464993 -0.2162663
0.21335547 -0.26407894 -0.21439575
0.21270755 -0.2636876 -0.21269044
0.21264817 -0.26463762 -0.21210833
0.21199988 -0.2642291 -0.21040946
0.21127017 -0.26362097 -0.20856123
0.21121143 -0.26456076 -0.20798539
0.21056592 -0.2641305 -0.20630391
0.20992152 -0.2636919 -0.20462926
0.20936036 -0.26343825 -0.20311554
0.20930248 -0.26436442 -0.20254804
0.2086595 -0.26390254 -0.20088753
0.2080171 -0.26343104 -0.19923285
0.20795982 -0.26434764 -0.1986712
0.2074013 -0.26406112 -0.19717935
0.20684333 -0.26376638 -0.19569252
0.20678656 -0.2646748 -0.19513589
0.20622931 -0.2643678 -0.19365656
0.2055898 -0.26385063 -0.19202992
0.20503365 -0.2635266 -0.19056109
0.20497768 -0.26442203 -0.19001241
0.20433964 -0.26388177 -0.18840002
0.2037848 -0.2635366 -0.18694414
0.20372939 -0.2644232 -0.18640089
0.20309281 -0.2638598 -0.18480276
0.20262183 -0.26370007 -0.18350925
0.20256694 -0.2645785 -0.18297102
0.20201416 -0.2642005 -0.18153523
0.20146248 -0.26381588 -0.18010552
0.20091076 -0.26342162 -0.17867978
0.20085664 -0.2642877 -0.17814909
0.20030567 -0.26388115 -0.17673089
0.19983733 -0.26367754 -0.17546406
0.19978367 -0.26453614 -0.17493796
0.19923455 -0.26411137 -0.17353295
0.19868533 -0.26367676 -0.1721319
0.19863218 -0.2645272 -0.1716108
0.19816627 -0.26429656 -0.17036264
0.19761892 -0.26384383 -0.16897482
0.19715391 -0.2635989 -0.16773546
0.19710144 -0.2644384 -0.16722105
0.19663641 -0.26418144 -0.16598682
0.19617313 -0.26392114 -0.16475905
0.1961211 -0.26475385 -0.16424884
0.19565779 -0.26448157 -0.16302623
0.19527645 -0.2644224 -0.16194871
0.1952248 -0.26524892 -0.16144225
0.19484465 -0.26518327 -0.1603709
0.19438344 -0.26489034 -0.15916324
0.19400403 -0.26481318 -0.15809901
0.19395292 -0.26563084 -0.15759799
0.19357404 -0.2655455 -0.15653878
0.19311425 -0.26523018 -0.15534498
0.19306353 -0.2660417 -0.15484773
0.19268626 -0.26594406 -0.15379854
0.19230793 -0.26583707 -0.15275031
0.1920124 -0.2659558 -0.15184413
0.19196215 -0.2667598 -0.15135148
0.19150445 -0.26641348 -0.15017706
