ply
format ascii 1.0
element vertex 1396
property float x
property float y
property float z
end_header
0.21405077 -0.2528675 -0.42535445
0.21412455 -0.25443718 -0.42464522
0.21314815 -0.25418305 -0.42088994
0.21230257 -0.25413817 -0.41752565
0.21237543 -0.25568834 -0.41682523
0.21155433 -0.25566164 -0.41354755
0.21056545 -0.25532117 -0.40979752
0.20944983 -0.25473565 -0.40569586
0.20952122 -0.25625473 -0.40500948
0.20839739 -0.25562215 -0.40090504
0.2073437 -0.25509486 -0.3970146
0.20741402 -0.25659102 -0.39633855
0.2062217 -0.25577995 -0.39207357
0.20509566 -0.25506786 -0.3880112
0.2040427 -0.2544691 -0.38416952
0.20411135 -0.25592992 -0.3835095
0.20298341 -0.25516114 -0.37947574
0.20185712 -0.25437394 -0.37546042
0.20192468 -0.2558112 -0.37481102
0.20094442 -0.25526795 -0.37122548
0.19981703 -0.25442648 -0.36724058
0.19988355 -0.2558417 -0.3666011
0.19882779 -0.25510547 -0.36283618
0.19777143 -0.25434804 -0.35908246
0.19678746 -0.25371066 -0.3555423
0.19685246 -0.25509357 -0.35491744
0.19579384 -0.25428233 -0.3511891
0.1948092 -0.25359625 -0.34767747
0.1948732 -0.25495788 -0.34706223
0.19388707 -0.25424087 -0.34356442
0.19297302 -0.2536485 -0.34027597
0.19303608 -0.25499028 -0.3396697
0.19212197 -0.2543718 -0.33639774
0.19120815 -0.25373667 -0.3331377
0.19029227 -0.25308007 -0.3298831
0.19035399 -0.2543932 -0.32928976
0.18957846 -0.25399718 -0.32643142
0.18873821 -0.25345376 -0.32340786
0.18879914 -0.25474992 -0.3228222
0.18788251 -0.2540247 -0.31960854
0.18711433 -0.25359055 -0.31680408
0.18717442 -0.2548691 -0.3162264
0.18633154 -0.2542567 -0.3132364
0.18556206 -0.2537828 -0.3104522
0.18471701 -0.25313482 -0.3074763
0.1847759 -0.25438777 -0.3069102
0.18377928 -0.25339335 -0.303548
0.1830076 -0.2528613 -0.30079216
0.18306562 -0.2540959 -0.30023432
0.18229279 -0.2535397 -0.29748937
0.18144311 -0.2528027 -0.2945519
0.18150035 -0.25402045 -0.29400167
0.18065047 -0.25325936 -0.29107884
0.17987491 -0.2526452 -0.28836006
0.17917377 -0.2521803 -0.28584436
0.17922987 -0.25337386 -0.28530508
0.1785272 -0.2528859 -0.28279808
0.17775008 -0.25221905 -0.28010672
0.17780545 -0.25339723 -0.2795744
0.17717743 -0.25304312 -0.2772811
0.1764729 -0.25250503 -0.27479866
0.17652763 -0.25366926 -0.27427262
0.175823 -0.25311136 -0.2718026
0.1751928 -0.2527097 -0.26953092
0.1745624 -0.25229585 -0.26726642
0.17461616 -0.25343958 -0.26674965
0.17398484 -0.25300604 -0.26449412
0.17335293 -0.25255924 -0.26224452
0.17340606 -0.2536898 -0.26173368
0.17277321 -0.25322327 -0.25949302
0.17213927 -0.25274244 -0.2572572
0.1721918 -0.2538598 -0.2567523
0.17155784 -0.25336137 -0.25452775
0.17099872 -0.25302795 -0.25249767
0.17036311 -0.2525028 -0.2502835
0.17041473 -0.2536011 -0.24978724
0.16985464 -0.2532387 -0.24777192
0.16921753 -0.25268134 -0.24557233
0.16926856 -0.2537672 -0.2450817
0.16870664 -0.2533737 -0.24307887
0.16814458 -0.2529696 -0.24108239
0.16819507 -0.25404373 -0.24059707
0.16755554 -0.25343502 -0.23842065
0.16699253 -0.2530019 -0.23643883
0.16642807 -0.25255492 -0.23446013
0.1664777 -0.2536107 -0.23398308
0.16591331 -0.25314832 -0.23201449
0.16534793 -0.2526731 -0.23005013
0.165397 -0.25371718 -0.22957838
0.16490725 -0.25341538 -0.22780643
0.16426447 -0.252721 -0.22567192
0.164313 -0.25375336 -0.22520547
0.16382195 -0.2534244 -0.22344573
0.16325432 -0.25289246 -0.22150867
0.16283935 -0.252738 -0.21994245
0.16288714 -0.25375497 -0.21948294
0.16231818 -0.25319523 -0.21755843
0.16182542 -0.25282052 -0.21582101
0.1618727 -0.25382653 -0.21536647
0.16145593 -0.25363454 -0.21381709
0.16096248 -0.25323623 -0.2120921
0.16100931 -0.2542327 -0.21164185
0.16051464 -0.25381768 -0.20992266
0.16009633 -0.25359342 -0.20838778
0.1596007 -0.2531586 -0.20667747
0.15964684 -0.25414038 -0.20623386
0.15915109 -0.25369173 -0.20453186
0.15873179 -0.25343657 -0.2030128
0.15877749 -0.25440884 -0.20257348
0.15835759 -0.25414053 -0.20106038
0.15785964 -0.25365588 -0.19937259
0.15751588 -0.2535757 -0.19804457
0.15756096 -0.2545348 -0.19761121
0.15706249 -0.25402772 -0.19593582
0.15671703 -0.25392562 -0.19461495
0.1567617 -0.2548759 -0.19418557
0.15626213 -0.25434473 -0.19252117
0.15584004 -0.25401613 -0.1910379
0.15588427 -0.2549569 -0.19061282
0.15545996 -0.2546108 -0.18913192
0.15511312 -0.25447044 -0.1878301
0.15468878 -0.25410947 -0.18635845
0.1547324 -0.25503775 -0.18593901
0.1543084 -0.25466624 -0.18447548
0.15396015 -0.25449842 -0.18318565
0.15400341 -0.25541863 -0.18276986
0.15357849 -0.2550262 -0.18131614
0.15323034 -0.25484204 -0.18003713
0.15327322 -0.25575423 -0.17962497
0.15300173 -0.25577733 -0.17852075
0.15265262 -0.25557515 -0.17724936
0.15230304 -0.25536528 -0.17598103
0.15234543 -0.2562672 -0.17557351
0.152152 -0.25649452 -0.17465176
0.15211326 -0.2571618 -0.17406897
0.15215552 -0.25806075 -0.1736628
0.15196314 -0.25828284 -0.17274861
0.15169254 -0.2582748 -0.1716679
0.15173456 -0.25916865 -0.17126402
0.1513798 -0.25890833 -0.17000727
0.15110536 -0.25887585 -0.1689268
0.15067767 -0.25839 -0.16752176
0.15071917 -0.25927284 -0.16712286
0.15052323 -0.25945735 -0.16621844
0.1502421 -0.25938687 -0.16513558
0.15028335 -0.2602645 -0.16473903
0.15065058 -0.26210868 -0.1650315
0.20128214 -0.14315368 -0.45091465
0.2013529 -0.14465901 -0.45023447
0.19043162 -0.13369377 -0.4129404
0.18894178 -0.13330576 -0.4071409
0.18869974 -0.13432741 -0.40550166
0.18876424 -0.13569987 -0.40488157
0.1885103 -0.1366985 -0.40320855
0.18817446 -0.13759409 -0.40126953
0.1882386 -0.13895912 -0.40065274
0.18800922 -0.13997105 -0.39907107
0.18782839 -0.14103617 -0.39765242
0.1878923 -0.14239565 -0.39703816
0.18796133 -0.14376143 -0.39644065
0.18804553 -0.14514616 -0.39589268
0.18831731 -0.146766 -0.39595506
0.18838133 -0.14812787 -0.39533973
0.18860076 -0.1496872 -0.39522848
0.18901189 -0.15149501 -0.39573592
0.18907614 -0.15286204 -0.39511827
0.18955907 -0.15477315 -0.39585075
0.19017969 -0.15687259 -0.39702126
0.19024442 -0.15824962 -0.39639905
0.19080919 -0.16029091 -0.39738023
0.19137633 -0.16234495 -0.39836273
0.1920206 -0.16451257 -0.3995854
0.19208609 -0.16590579 -0.3989559
0.1924726 -0.16773777 -0.39934787
0.19297571 -0.16973636 -0.40010607
0.19304156 -0.17113732 -0.39947307
0.1938682 -0.17359988 -0.4012467
0.19519675 -0.17678213 -0.4045956
0.19526356 -0.17820373 -0.40395328
0.19641986 -0.18117669 -0.40673724
0.19741762 -0.18394315 -0.40901035
0.19843918 -0.18676162 -0.4113466
0.19850743 -0.18821351 -0.4106906
0.1995666 -0.19111405 -0.41312677
0.20044528 -0.19376786 -0.41498882
0.20051438 -0.19523805 -0.41432452
0.20117956 -0.19759661 -0.4155094
0.20155768 -0.19953589 -0.41579825
0.20166643 -0.20107451 -0.41525105
0.20173599 -0.2025543 -0.4145824
0.2019227 -0.20421307 -0.41427436
0.20239647 -0.20631546 -0.4148468
0.20246626 -0.20780055 -0.41417578
0.2032423 -0.21038465 -0.41566578
0.20372723 -0.21252632 -0.4162583
0.20379758 -0.21402277 -0.41558218
0.20457494 -0.21663935 -0.41705674
0.20528623 -0.21916388 -0.41832215
0.2060383 -0.22176577 -0.41970348
0.2061096 -0.22328267 -0.4190181
0.20688197 -0.22593653 -0.4204484
0.20767298 -0.2286339 -0.42192653
0.20774496 -0.23016514 -0.42123467
0.20855951 -0.23292138 -0.42277044
0.20922787 -0.23544885 -0.42385966
0.20930049 -0.23699361 -0.4231617
0.20995 -0.23950611 -0.42418405
0.2106991 -0.24219726 -0.42549598
0.21124871 -0.2445626 -0.42620727
0.21132214 -0.24612474 -0.42550144
0.21194232 -0.2486243 -0.42641312
0.21195768 -0.2500914 -0.4255326
0.21203132 -0.25165847 -0.42482454
0.21173042 -0.25257292 -0.4230151
0.21161775 -0.25381023 -0.4217625
0.21169114 -0.2553717 -0.42105696
0.21094728 -0.25548676 -0.41796285
0.21016741 -0.25552282 -0.41477332
0.20932217 -0.25542638 -0.41140357
0.20939434 -0.25696188 -0.41070977
0.2084243 -0.25661477 -0.4069944
0.20731838 -0.25600198 -0.4028982
0.2073895 -0.25751528 -0.4022144
0.20605983 -0.25645983 -0.39749408
0.20487496 -0.25564572 -0.3932066
0.20494485 -0.25713253 -0.39253482
0.20375861 -0.2562816 -0.38826546
0.20256782 -0.25539935 -0.3839978
0.20145616 -0.25464284 -0.37997058
0.2015243 -0.25609288 -0.3793154
0.20040604 -0.25529173 -0.37529
0.19943307 -0.2547461 -0.37169036
0.19950019 -0.25617394 -0.3710452
0.19845648 -0.25546396 -0.36726394
0.19734266 -0.25459835 -0.36329812
0.1974087 -0.25600344 -0.36266324
0.19643521 -0.25537977 -0.35911167
0.19539094 -0.25459853 -0.3553739
0.19441447 -0.25393093 -0.35183838
0.19447903 -0.25530434 -0.3512178
0.19350468 -0.25461286 -0.3477063
0.19252822 -0.25389853 -0.34420088
0.1925918 -0.25525138 -0.3435896
0.19161531 -0.254509 -0.3401021
0.19076687 -0.2540071 -0.3369799
0.19082956 -0.25534064 -0.33637735
0.18985201 -0.25455078 -0.33291608
0.18894883 -0.2538948 -0.32967064
0.18811749 -0.25336954 -0.32663292
0.18817882 -0.2546745 -0.3260433
0.18734874 -0.254128 -0.32302433
0.18659076 -0.25371602 -0.32021162
0.1866513 -0.25500414 -0.3196296
0.18581784 -0.2544116 -0.3166265
0.18505809 -0.2539589 -0.3138328
0.18511784 -0.25523016 -0.3132584
0.18428308 -0.2545959 -0.31027684
0.18337354 -0.25378585 -0.3071046
0.18253651 -0.25311446 -0.30413768
0.18259498 -0.2543586 -0.30357555
0.18175788 -0.25366333 -0.3006237
0.1809941 -0.25311172 -0.2978772
0.18105178 -0.254339 -0.29732266
0.18013787 -0.25343663 -0.29419205
0.17937212 -0.25284323 -0.2914644
0.17942898 -0.25405294 -0.2909178
0.1785872 -0.25326923 -0.28800377
0.17789388 -0.2528004 -0.28549016
0.1771999 -0.25231695 -0.28298318
0.17725565 -0.25350317 -0.2824472
0.17648615 -0.25282994 -0.27975565
0.175866 -0.2524801 -0.27746263
0.17592107 -0.25365168 -0.27693325
0.17529951 -0.253281 -0.27464795
0.17460266 -0.25272623 -0.27217522
0.17398034 -0.25232953 -0.26990342
0.17403443 -0.25348058 -0.26938334
0.17341116 -0.25306413 -0.2671205
0.1728621 -0.25280824 -0.2650557
0.17291561 -0.25394687 -0.2645412
0.17221592 -0.25332284 -0.26210147
0.17159003 -0.25285915 -0.25985834
0.17164288 -0.25398386 -0.25935015
0.17101651 -0.25350136 -0.2571171
0.17038953 -0.25300577 -0.25488997
0.16983701 -0.25267592 -0.25285867
0.16988897 -0.25378153 -0.25235912
0.16926093 -0.25325477 -0.25014773
0.168707 -0.2528949 -0.24813004
0.16875838 -0.25398806 -0.24763611
0.16812837 -0.25342795 -0.24543814
0.16749772 -0.25285468 -0.24324614
0.16754848 -0.25393465 -0.24275817
0.16699317 -0.25352857 -0.24076453
0.16651182 -0.2532941 -0.2389609
0.16587956 -0.25267795 -0.23678988
0.16592951 -0.25374034 -0.23630984
0.1653718 -0.2532921 -0.23433363
0.16481356 -0.25283214 -0.2323627
0.16486295 -0.2538828 -0.23188798
0.16430432 -0.25340638 -0.22992611
0.1637447 -0.25291717 -0.22796845
0.16379353 -0.2539561 -0.22749902
0.16323353 -0.25345042 -0.22555041
0.16274826 -0.25312462 -0.22378954
0.16218723 -0.2525963 -0.22185121
0.16223527 -0.2536184 -0.2213894
0.16174923 -0.2532674 -0.2196416
0.16126221 -0.2529049 -0.21789722
0.16130978 -0.2539167 -0.21744004
0.160823 -0.25354135 -0.21570498
0.16041118 -0.2533522 -0.21415454
0.16045828 -0.2543545 -0.21370165
0.15996985 -0.25395292 -0.21197665
0.15948094 -0.2535411 -0.2102563
0.1589921 -0.25312045 -0.20854189
0.15903848 -0.2541074 -0.20809595
0.15862444 -0.25387192 -0.20656624
0.15821055 -0.25362912 -0.20504186
0.15825653 -0.25460726 -0.2045999
0.15776528 -0.25414565 -0.20290208
0.15735032 -0.25388005 -0.20138791
0.15739584 -0.2548487 -0.20095025
0.15698023 -0.25456995 -0.19944201
0.15648799 -0.25407556 -0.19776124
0.15607084 -0.25377664 -0.1962597
0.15611573 -0.25473136 -0.19582835
0.15577488 -0.25462982 -0.19450973
0.15535735 -0.2543113 -0.19301921
0.15540184 -0.25525793 -0.19259147
0.15498371 -0.2549263 -0.19110703
0.15456516 -0.25458577 -0.18962644
0.15460923 -0.25552356 -0.18920271
0.15419005 -0.25516993 -0.1877281
0.15377043 -0.25480738 -0.18625742
0.15342766 -0.25465265 -0.18496515
0.15347116 -0.255578 -0.18454704
0.15304953 -0.25519142 -0.18308371
0.15262954 -0.25480172 -0.18162893
0.15267262 -0.2557183 -0.18121478
0.1523284 -0.25553283 -0.17993642
0.15206014 -0.25555772 -0.1788312
0.1521029 -0.2564677 -0.17842005
0.15168138 -0.25604513 -0.17698021
0.15141192 -0.2560527 -0.17588139
0.15122071 -0.25628096 -0.1749583
0.15126303 -0.25718138 -0.17455146
0.15107314 -0.25740784 -0.17363505
0.15095901 -0.25785094 -0.17288686
0.15100117 -0.25874773 -0.17248167
0.15073363 -0.25873804 -0.17140171
0.15038297 -0.25847927 -0.17014425
0.15042481 -0.25936943 -0.16974203
0.15014994 -0.25932485 -0.16865474
0.14980434 -0.25906584 -0.16741805
0.14961478 -0.25926358 -0.16652133
0.1496562 -0.26014492 -0.1661231
0.1492286 -0.2596268 -0.16471995
0.14966476 -0.26168537 -0.16516782
0.14970616 -0.26256597 -0.16476993
0.19966784 -0.14393559 -0.45046768
0.18887381 -0.13302496 -0.41315603
0.18740197 -0.13264468 -0.40735403
0.18746662 -0.13402027 -0.40673247
0.187228 -0.1350403 -0.40509418
0.1869777 -0.13604052 -0.4034207
0.18704206 -0.13740966 -0.40280205
0.18671066 -0.13830313 -0.4008642
0.18648463 -0.1393165 -0.39928207
0.18654865 -0.14067848 -0.39866668
0.18637054 -0.14174232 -0.39724877
0.1864395 -0.14310807 -0.39665127
0.1865235 -0.14449272 -0.39610332
0.18658741 -0.14585246 -0.39548895
0.18685688 -0.14747338 -0.3955507
0.18707451 -0.14903195 -0.3954397
0.1871386 -0.15039541 -0.39482364
0.18754593 -0.15220508 -0.39533004
0.18802404 -0.15411411 -0.39606318
0.18808849 -0.15548544 -0.39544356
0.18870302 -0.15758786 -0.39661238
0.18926205 -0.15962669 -0.39759433
0.18982342 -0.16167825 -0.39857763
0.18988863 -0.16306555 -0.3979508
0.19052655 -0.16523623 -0.39917174
0.1909094 -0.16706665 -0.3995642
0.19097504 -0.16846316 -0.39893323
0.19147334 -0.17046405 -0.39969012
0.1922913 -0.1729229 -0.40146494
0.19235753 -0.17433162 -0.40082842
0.19367225 -0.17752054 -0.40417352
0.19481611 -0.18048817 -0.40695918
0.19580327 -0.18325007 -0.40923378
0.19587106 -0.18469226 -0.40858212
0.1968822 -0.18751577 -0.41091552
0.19793008 -0.19041146 -0.41335323
0.19799879 -0.19187345 -0.41269267
0.19886865 -0.19453152 -0.41455227
0.19952706 -0.19688715 -0.4157381
0.19959643 -0.19836342 -0.41507107
0.19997118 -0.20030431 -0.415359
0.20007955 -0.20184314 -0.41481167
0.2002649 -0.20350136 -0.41450378
0.20033452 -0.20498236 -0.41383463
0.20080389 -0.20708688 -0.41440585
0.20157193 -0.20966753 -0.41589695
0.20164207 -0.21115978 -0.4152227
0.20212251 -0.21330364 -0.41581398
0.20289187 -0.2159168 -0.41728967
0.20296255 -0.21742038 -0.4166103
0.20366688 -0.21994826 -0.41787377
0.20441157 -0.22255369 -0.41925308
0.20517603 -0.22520414 -0.4206845
0.20524766 -0.22672816 -0.41999587
0.2060309 -0.22942927 -0.42147186
0.20683706 -0.2321819 -0.4230088
0.20690939 -0.23372063 -0.42231357
0.20757131 -0.23625125 -0.42340097
0.20821434 -0.23876096 -0.42442426
0.20828721 -0.24031149 -0.42372367
0.20902903 -0.24300621 -0.42503357
0.2095735 -0.24537404 -0.42574343
0.21018755 -0.24787095 -0.42665595
0.21026124 -0.2494386 -0.42594764
0.21027721 -0.2509054 -0.4250673
0.20998052 -0.25182167 -0.42325726
0.210054 -0.25338498 -0.4225509
0.20994332 -0.2546213 -0.42129886
0.20920861 -0.25474033 -0.41820347
0.20928161 -0.2562936 -0.41750166
0.20851089 -0.25632522 -0.41431466
0.20767552 -0.25622398 -0.41094765
0.20671712 -0.25588188 -0.40723065
0.2067888 -0.25740698 -0.40654156
0.20569551 -0.25678802 -0.40244886
0.20438147 -0.2557393 -0.39772633
0.20445195 -0.25723866 -0.39704886
0.20328051 -0.25641802 -0.39276513
0.2021083 -0.25557312 -0.38849384
0.20093156 -0.25469688 -0.38422424
0.20100027 -0.2561586 -0.3835638
0.19990121 -0.25539604 -0.37954003
0.19879615 -0.25460058 -0.3755128
0.19886374 -0.25603876 -0.374863
0.19790186 -0.2554878 -0.3712664
0.19687052 -0.2547831 -0.36748344
0.19693711 -0.2561999 -0.36684328
0.19583587 -0.2553282 -0.3628809
0.19487396 -0.25470948 -0.35932773
0.19384198 -0.25393355 -0.35558823
0.19390702 -0.25531733 -0.354963
0.1929416 -0.2546443 -0.35143057
0.1919788 -0.25395778 -0.34791747
0.19204286 -0.25532097 -0.34730154
0.19107743 -0.25460124 -0.3437992
0.19011247 -0.2538638 -0.3403101
0.19017558 -0.2552064 -0.33970347
0.18933678 -0.2546998 -0.33658394
0.18837073 -0.25391486 -0.33312106
0.18747821 -0.25326344 -0.3298742
0.18753996 -0.2545772 -0.32928059
0.18671808 -0.25404736 -0.32624546
0.18589784 -0.25350514 -0.3232251
0.18595877 -0.25480127 -0.32263947
0.18520944 -0.2543851 -0.31982914
0.18438582 -0.25379682 -0.31682467
0.18444595 -0.25507608 -0.31624666
0.18369485 -0.25461924 -0.31345534
0.18286991 -0.25398922 -0.3104724
0.18197104 -0.25318375 -0.3072987
0.18202993 -0.25443667 -0.30673257
0.18120234 -0.25376073 -0.30376828
0.18037507 -0.25306967 -0.30081505
0.18043314 -0.254305 -0.30025688
0.17967801 -0.25374922 -0.29751277
0.17877474 -0.2528514 -0.2943807
0.17883198 -0.25406918 -0.29383045
0.17807488 -0.2534716 -0.2911052
0.17724292 -0.2526921 -0.2881898
0.17655782 -0.25222683 -0.28567505
0.17661393 -0.25342035 -0.28513575
0.1759278 -0.2529331 -0.28263095
0.1751673 -0.25226375 -0.27993816
0.17522268 -0.2534419 -0.27940583
0.17460962 -0.25308865 -0.27711475
0.17399545 -0.25272113 -0.27482843
0.1740502 -0.2538861 -0.27430204
0.17336121 -0.25332755 -0.27183148
0.17274596 -0.25292745 -0.26956165
0.17213006 -0.25251412 -0.2672978
0.17218386 -0.2536586 -0.26678067
0.17164108 -0.25339967 -0.2647176
0.1709496 -0.2527792 -0.26227674
0.17100276 -0.25391048 -0.26176557
0.17038396 -0.25344333 -0.25952438
0.16976494 -0.25296405 -0.25729027
0.16981748 -0.25408214 -0.2567851
0.16919757 -0.2535831 -0.25455993
0.16865134 -0.2532502 -0.2525304
0.1680307 -0.2527266 -0.250318
0.16808236 -0.25382566 -0.2498214
0.16753471 -0.2534627 -0.24780546
0.16691206 -0.2529058 -0.24560647
0.16696313 -0.25399238 -0.24511552
0.16633958 -0.25341564 -0.24292548
0.16579081 -0.25301236 -0.24093093
0.1658413 -0.2540865 -0.2404456
0.16536547 -0.25384936 -0.23864351
0.16474028 -0.2532298 -0.23647442
0.16418914 -0.2527844 -0.23449731
0.1642388 -0.25384092 -0.23401992
0.16368683 -0.25337788 -0.23205073
0.16313477 -0.25290427 -0.23008797
0.16318387 -0.2539491 -0.22961587
0.16263056 -0.25345683 -0.22765997
0.16207711 -0.25295395 -0.22571045
0.16212568 -0.25398707 -0.22524366
0.1616459 -0.2536586 -0.22348431
0.16109115 -0.2531272 -0.22154774
0.16061084 -0.25277868 -0.21979913
0.16065864 -0.25379568 -0.21933962
0.16017713 -0.25343046 -0.2175968
0.1596961 -0.25305757 -0.21586093
0.15974341 -0.2540643 -0.21540606
0.15933631 -0.25387284 -0.21385692
0.15885362 -0.2534737 -0.21213113
0.15890048 -0.2544709 -0.21168055
0.15841708 -0.2540564 -0.20996173
0.15793374 -0.2536331 -0.20824884
0.15752463 -0.25339973 -0.20671846
0.15757081 -0.25438225 -0.20627451
0.15716161 -0.2541372 -0.20475142
0.15667611 -0.25367805 -0.20305282
0.15672185 -0.25465104 -0.20261317
0.15631159 -0.2543832 -0.2011003
0.15590091 -0.25410658 -0.19959138
0.1554144 -0.25361466 -0.1979098
0.15545948 -0.25457376 -0.19747645
0.15504706 -0.25427255 -0.19597623
0.15471032 -0.2541728 -0.19465706
0.15475503 -0.25512382 -0.19422735
0.1543422 -0.254803 -0.19273812
0.15392901 -0.2544735 -0.19125299
0.1539733 -0.25541574 -0.19082727
0.15355945 -0.25507292 -0.18934798
0.15314518 -0.25472134 -0.18787272
0.1527305 -0.2543609 -0.18640135
0.15277417 -0.25528994 -0.18598159
0.15243532 -0.25513333 -0.18469039
0.15201864 -0.25474885 -0.18322638
0.15206192 -0.25566977 -0.18281026
0.15164661 -0.2552778 -0.18135677
0.15130651 -0.2550941 -0.18007785
0.15134941 -0.25600702 -0.17966537
0.1510843 -0.2560304 -0.17856102
0.15066768 -0.25560996 -0.17712049
0.15040155 -0.25561893 -0.17602122
0.15044397 -0.25652158 -0.17561337
0.1502551 -0.25674868 -0.17469095
0.15006769 -0.25697616 -0.1737742
0.1501099 -0.25787443 -0.17336833
0.14999734 -0.25831676 -0.1726206
0.1497331 -0.25830847 -0.17154019
0.1497751 -0.25920233 -0.1711363
0.1494284 -0.25894165 -0.16987993
0.14915687 -0.25889853 -0.16879216
0.14881533 -0.25864124 -0.16755491
0.14885686 -0.25952476 -0.1671557
0.14866965 -0.2597214 -0.16625963
0.14824696 -0.25920537 -0.16485581
0.14828818 -0.26008233 -0.16445956
0.14872037 -0.26214278 -0.16490635
0.19122759 -0.13550307 -0.42760035
0.19129498 -0.13693684 -0.4269525
0.18648547 -0.1327074 -0.4096905
0.18636099 -0.13386773 -0.40842184
0.18616638 -0.13494141 -0.40691763
0.18623112 -0.13631886 -0.40629524
0.18578392 -0.13708138 -0.40394208
0.18513991 -0.13759531 -0.4009313
0.18520404 -0.13895988 -0.40031475
0.18497373 -0.139962 -0.39870846
0.18471894 -0.14092785 -0.3970237
0.18478277 -0.14228596 -0.39641008
0.18477613 -0.1435552 -0.39556086
0.18471836 -0.14475806 -0.394542
0.18478541 -0.14611842 -0.39394036
0.18484916 -0.14747453 -0.39332762
0.18492061 -0.14884065 -0.39274043
0.18525365 -0.15054967 -0.3930191
0.18531752 -0.1519087 -0.39240506
0.18572876 -0.15372966 -0.39293647
0.18620405 -0.15564327 -0.39367425
0.1862683 -0.15701026 -0.3930566
0.18675153 -0.15894674 -0.3938125
0.18717329 -0.16080733 -0.39436206
0.18785869 -0.1630384 -0.39576796
0.18792363 -0.16442001 -0.39514372
0.18868348 -0.16677342 -0.39678007
0.18932198 -0.16896957 -0.39801374
0.18938754 -0.17036442 -0.39738348
0.19015548 -0.17276207 -0.39902478
0.19111338 -0.17544653 -0.40127057
0.19117974 -0.17685802 -0.4006328
0.19191787 -0.17924826 -0.402155
0.19286843 -0.1819631 -0.40435052
0.19364396 -0.18443666 -0.40597427
0.1937114 -0.18587175 -0.40532583
0.19454534 -0.18845327 -0.40712267
0.19525725 -0.1908659 -0.40852132
0.19532539 -0.19231567 -0.40786627
0.19589645 -0.19453223 -0.40880623
0.19619437 -0.1963394 -0.4088753
0.19654642 -0.19823456 -0.40911257
0.19661506 -0.19969487 -0.40845272
0.19708815 -0.20178741 -0.40906557
0.19765098 -0.20402889 -0.40995517
0.19772007 -0.20549853 -0.40929112
0.1982146 -0.20764548 -0.40995792
0.19864655 -0.20970032 -0.410424
0.198716 -0.21117812 -0.40975627
0.1991405 -0.2132313 -0.4101925
0.19964397 -0.21541998 -0.41086933
0.20007844 -0.21750386 -0.4113272
0.20014846 -0.21899354 -0.4106541
0.20077199 -0.22140136 -0.41168827
0.20146723 -0.2239394 -0.4129365
0.20153782 -0.22544125 -0.4122579
0.20231926 -0.22814254 -0.41375896
0.20284536 -0.23042403 -0.41446993
0.20291653 -0.23193793 -0.41378587
0.2036844 -0.23464721 -0.41522536
0.20455898 -0.23755369 -0.41698086
0.20522015 -0.24010515 -0.41807863
0.20529231 -0.24164054 -0.4173849
0.20630118 -0.2448183 -0.4195231
0.20698692 -0.24744417 -0.42067495
0.20705983 -0.24899545 -0.41997403
0.20745204 -0.25111562 -0.42023265
0.20780975 -0.25318 -0.4203839
0.20788296 -0.2547375 -0.41968018
0.20763846 -0.25571993 -0.4180275
0.20715933 -0.2562696 -0.41567928
0.20640038 -0.25629738 -0.41250545
0.20647277 -0.2578374 -0.4118096
0.20552203 -0.25748754 -0.40808254
0.204431 -0.2568581 -0.40395305
0.20450234 -0.2583758 -0.4032673
0.20314729 -0.2572188 -0.3983815
0.20197721 -0.25638384 -0.39405635
0.20204726 -0.25787434 -0.39338288
0.20089182 -0.25703263 -0.38912293
0.19959454 -0.255897 -0.3844635
0.19850051 -0.25512654 -0.38041282
0.19856876 -0.2565788 -0.37975663
0.197478 -0.25578246 -0.37573633
0.1964571 -0.25510088 -0.3719323
0.19652429 -0.25653028 -0.37128645
0.19550432 -0.25582033 -0.36750448
0.1944863 -0.25509432 -0.36374125
0.19455245 -0.25650167 -0.36310536
0.19360137 -0.25587922 -0.3595533
0.19250923 -0.25495535 -0.35560986
0.19159897 -0.25437647 -0.35219935
0.19166361 -0.25575188 -0.3515779
0.19064145 -0.25491878 -0.3478666
0.18968923 -0.25420856 -0.3443666
0.18975288 -0.25556266 -0.34375477
0.18879934 -0.25482193 -0.34026915
0.1879189 -0.2542138 -0.33700162
0.18798162 -0.25554812 -0.33639875
0.18709771 -0.25490692 -0.3331381
0.18621439 -0.25424978 -0.32989037
0.18540308 -0.253727 -0.32685503
0.18546449 -0.25503343 -0.32626474
0.18465212 -0.25448465 -0.32324186
0.18383987 -0.25392026 -0.3202296
0.18390045 -0.2552091 -0.31964725
0.18308617 -0.25461668 -0.3166447
0.18234478 -0.25416577 -0.31385356
0.18240456 -0.25543773 -0.31327885
0.18158914 -0.2548039 -0.31029823
0.18069987 -0.25399292 -0.30712536
0.17988275 -0.2533232 -0.30416095
0.17994125 -0.25456804 -0.3035985
0.17912288 -0.25387192 -0.300646
0.1783037 -0.25315827 -0.2977015
0.17836139 -0.25438553 -0.29714698
0.17754096 -0.25364548 -0.29421437
0.1767929 -0.2530525 -0.29148754
0.1768498 -0.25426292 -0.29094064
0.17602795 -0.253481 -0.2880292
0.17535125 -0.25301382 -0.2855177
0.17459998 -0.2523631 -0.2828148
0.17465574 -0.25354934 -0.28227884
0.17397678 -0.25304362 -0.2797828
0.1732982 -0.25252566 -0.2772963
0.17335327 -0.25369725 -0.27676696
0.17274614 -0.2533262 -0.2744825
0.17213844 -0.25294206 -0.27220407
0.1714575 -0.25237426 -0.26973996
0.17151159 -0.25352532 -0.26921988
0.17097595 -0.25328168 -0.26715028
0.1703661 -0.25285143 -0.26489285
0.17041962 -0.25399002 -0.26437837
0.16980931 -0.25354105 -0.26213104
0.16912545 -0.25290394 -0.2596998
0.16917832 -0.25402862 -0.2591916
0.16863935 -0.25372234 -0.2571487
0.16802731 -0.25322828 -0.25492334
0.16741376 -0.25271887 -0.25270167
0.16746572 -0.25382447 -0.25220212
0.16692568 -0.25347793 -0.25018078
0.16631103 -0.25293735 -0.24797478
0.1663624 -0.2540305 -0.24748085
0.16574685 -0.25347015 -0.24528383
0.16520438 -0.25308 -0.24328054
0.16525516 -0.2541607 -0.24279225
0.16471271 -0.2537551 -0.24079911
0.16416885 -0.2533356 -0.23880906
0.16362487 -0.25290543 -0.23682542
0.16367485 -0.25396857 -0.23634505
0.16305614 -0.25333312 -0.23418356
0.1625851 -0.2530625 -0.23240003
0.16263452 -0.25411388 -0.23192497
0.16208833 -0.25363687 -0.22996253
0.16154206 -0.25314927 -0.22800647
0.16159092 -0.25418895 -0.2275367
0.16104335 -0.25368258 -0.22558746
0.16049568 -0.25316572 -0.22364469
0.16002116 -0.25282946 -0.22188915
0.16006924 -0.25385228 -0.221427
0.15959445 -0.2535018 -0.21967956
0.15911919 -0.25314105 -0.21793672
0.15916678 -0.25415358 -0.21747921
0.15869027 -0.2537761 -0.2157421
0.15821432 -0.25339106 -0.21401212
0.15826142 -0.25439334 -0.21355924
0.15778422 -0.25399157 -0.21183495
0.15730655 -0.2535795 -0.21011528
0.15690334 -0.2533592 -0.20858124
0.15694976 -0.25434688 -0.20813498
0.15654595 -0.25411347 -0.2066069
0.15606667 -0.253667 -0.20490284
0.15611264 -0.25464514 -0.20446089
0.15570715 -0.25438735 -0.20294164
0.15522791 -0.25391927 -0.20125173
0.15527344 -0.2548879 -0.20081405
0.15486749 -0.25460905 -0.19930652
0.15453507 -0.25452626 -0.1979777
0.15405367 -0.25402296 -0.19630165
0.15409859 -0.2549784 -0.19586995
0.15369114 -0.25466862 -0.19437625
0.15335792 -0.25455943 -0.19306125
0.15340246 -0.25550678 -0.1926332
0.15299396 -0.25517565 -0.19114898
0.15250959 -0.25462198 -0.18949309
0.15255366 -0.2555598 -0.18906936
0.1522188 -0.2554186 -0.18776827
0.15180975 -0.25505915 -0.18629993
0.15147404 -0.2549022 -0.18500559
0.15151757 -0.25582832 -0.18458714
0.15103191 -0.25522977 -0.18295495
0.1506205 -0.25483698 -0.1814985
0.15066358 -0.25575355 -0.18108435
0.15032853 -0.25557125 -0.1798091
0.14999087 -0.25537494 -0.17853196
0.15003361 -0.2562842 -0.17812113
0.14969641 -0.25607988 -0.17685126
0.14943473 -0.25609115 -0.1757558
0.14924695 -0.2563152 -0.17482987
0.14928927 -0.25721562 -0.17442302
0.14910413 -0.2574418 -0.17350678
0.14899318 -0.25788474 -0.17275873
0.14903533 -0.2587815 -0.17235354
0.14884755 -0.25899094 -0.17143708
0.14850433 -0.25873074 -0.17017834
0.14854619 -0.2596216 -0.16977581
0.14820826 -0.25936764 -0.16853485
0.14786711 -0.25909787 -0.16729093
0.14768243 -0.25929585 -0.16639474
0.14772385 -0.2601772 -0.16599652
0.14722936 -0.25942573 -0.16442671
0.14765607 -0.2614797 -0.16487154
0.14769743 -0.2623596 -0.16447398
0.22417492 -0.17283301 -0.5485638
0.22425976 -0.17463805 -0.5477482
0.18612349 -0.13211106 -0.4148496
0.18555483 -0.13276458 -0.41203135
0.18559119 -0.13411923 -0.41130427
0.18565644 -0.1355077 -0.4106769
0.18476409 -0.13574675 -0.40676534
0.1840927 -0.13623394 -0.40362278
0.1841571 -0.13760431 -0.40300357
0.18347454 -0.13805553 -0.3998373
0.18311948 -0.13889799 -0.39779535
0.18318331 -0.14025591 -0.39718178
0.18279137 -0.1410393 -0.39502305
0.18278103 -0.14229842 -0.3941615
0.18272127 -0.14349277 -0.393134
0.18278477 -0.14484376 -0.39252356
0.18284637 -0.14619224 -0.39190674
0.18291621 -0.14755152 -0.39131764
0.18297972 -0.14890254 -0.3907072
0.18324518 -0.1505223 -0.39077228
0.18358532 -0.15224619 -0.3910841
0.18364906 -0.1536023 -0.39047137
0.18399097 -0.15533684 -0.39078367
0.18426599 -0.15698522 -0.39087036
0.1843387 -0.15835856 -0.3902842
0.18440269 -0.15971996 -0.38966906
0.1850057 -0.161836 -0.39083254
0.18555853 -0.16389196 -0.3918239
0.18562302 -0.16526423 -0.39120385
0.18624066 -0.16742729 -0.39239833
0.18699351 -0.16979593 -0.3940285
0.18705863 -0.1711813 -0.39340255
0.18801484 -0.17386697 -0.39568266
0.18892306 -0.17649965 -0.39779523
0.1898174 -0.17912838 -0.399852
0.18988378 -0.18054079 -0.39921382
0.19085477 -0.18330869 -0.40150276
0.19176827 -0.1860076 -0.40359455
0.19183552 -0.18743846 -0.40294802
0.19266526 -0.19003423 -0.40475428
0.19310214 -0.19204079 -0.40528953
0.19316995 -0.19348355 -0.40463763
0.19357832 -0.19545653 -0.40507478
0.19399181 -0.1974442 -0.405524
0.19460772 -0.19975765 -0.40661347
0.19467615 -0.20121336 -0.40595573
0.19509852 -0.20323396 -0.40642098
0.1955132 -0.20524898 -0.4068573
0.19558196 -0.20671202 -0.40619627
0.19593827 -0.20864229 -0.406442
0.19635738 -0.21068074 -0.40688178
0.19642645 -0.21215044 -0.40621772
0.19691616 -0.21431583 -0.40687224
0.19747692 -0.2166075 -0.40774384
0.1980372 -0.21890782 -0.40860772
0.19810697 -0.22039217 -0.40793705
0.19887073 -0.22305097 -0.40942454
0.1995032 -0.22549967 -0.41049588
0.19957358 -0.22699709 -0.4098193
0.20034958 -0.22970904 -0.41132393
0.20085707 -0.23196976 -0.4119914
0.20092802 -0.23347908 -0.41130942
0.20168124 -0.23618229 -0.41272378
0.20205994 -0.23823959 -0.4129812
0.20266807 -0.24070854 -0.413937
0.20273976 -0.24223378 -0.41324785
0.2033808 -0.24477692 -0.41429392
0.20375678 -0.24685444 -0.4145268
0.2038289 -0.24838874 -0.41383356
0.20444037 -0.2509027 -0.41477418
0.20470105 -0.25278634 -0.4146477
0.20477352 -0.25432816 -0.41395104
0.20471312 -0.25562486 -0.4128543
0.20422651 -0.25612876 -0.41047865
0.20358154 -0.25632703 -0.40763497
0.20365332 -0.25785428 -0.4069449
0.20274115 -0.25752917 -0.4033164
0.20156536 -0.25668696 -0.39891446
0.20163606 -0.25819117 -0.39823478
0.20036168 -0.2571253 -0.3935629
0.1990823 -0.25602466 -0.38889265
0.19793485 -0.25515324 -0.3846288
0.19800366 -0.2566171 -0.38396737
0.19685267 -0.25570464 -0.3797153
0.19577661 -0.25491604 -0.37569812
0.19584426 -0.25635558 -0.37504768
0.19483474 -0.2556665 -0.371246
0.19376186 -0.25483146 -0.3672724
0.19382845 -0.2562482 -0.36663225
0.19282149 -0.25551352 -0.362871
0.19178519 -0.25469974 -0.35903758
0.19077823 -0.2539249 -0.3553024
0.19084325 -0.25530836 -0.3546773
0.18990442 -0.25464272 -0.3511579
0.1889649 -0.2539571 -0.34764862
0.18902896 -0.25532 -0.34703282
0.1880897 -0.25460702 -0.34354228
0.187148 -0.25387055 -0.34005693
0.1872111 -0.2552129 -0.33945042
0.18626954 -0.25444883 -0.33598343
0.18539755 -0.25381285 -0.33272615
0.18459558 -0.25330776 -0.3296786
0.18465734 -0.25462148 -0.329085
0.18378574 -0.25394404 -0.3258563
0.18305497 -0.25355121 -0.32303545
0.18311588 -0.25484735 -0.3224498
0.18231307 -0.25427705 -0.31944093
0.1815814 -0.25384542 -0.31664157
0.18164153 -0.2551247 -0.31606355
0.18090786 -0.25466698 -0.3132727
0.18010227 -0.25403672 -0.31029117
0.17929505 -0.2533871 -0.30731535
0.17935397 -0.25464073 -0.3067489
0.17854707 -0.25396824 -0.30378938
0.17773858 -0.25327638 -0.3008356
0.17779666 -0.25451246 -0.3002771
0.17698766 -0.25379586 -0.2973372
0.17617635 -0.25305843 -0.29440135
0.17623363 -0.2542769 -0.29385078
0.17549425 -0.25367978 -0.2911264
0.1746823 -0.25290227 -0.28821385
0.17401384 -0.25243866 -0.28570125
0.17406997 -0.25363293 -0.28516164
0.17339985 -0.2531459 -0.2826573
0.1727297 -0.2526457 -0.28016135
0.17278515 -0.25382534 -0.27962834
0.1720413 -0.253133 -0.27694702
0.17144206 -0.25276634 -0.2746629
0.17149681 -0.2539313 -0.27413654
0.17089619 -0.25354367 -0.27186003
0.17029542 -0.25314412 -0.26959088
0.16976638 -0.25290403 -0.26752004
0.16982025 -0.25404996 -0.26700228
0.16921799 -0.25361812 -0.26474768
0.16854261 -0.2529981 -0.26230755
0.16859582 -0.25413013 -0.2617961
0.16799194 -0.25366455 -0.25955665
0.16746001 -0.2533629 -0.25751367
0.16751264 -0.25448245 -0.2570078
0.16683461 -0.25380602 -0.25459313
0.16630125 -0.25347364 -0.2525641
0.16569461 -0.25294942 -0.25035113
0.1657463 -0.25404918 -0.24985422
0.16513874 -0.25350514 -0.2476502
0.16460341 -0.2531303 -0.24564038
0.16465452 -0.2542176 -0.2451491
0.1641188 -0.25382617 -0.24314836
0.16358249 -0.25342304 -0.24115284
0.16363305 -0.2544986 -0.24066685
0.16302292 -0.25389194 -0.23849276
0.16255827 -0.2536454 -0.23669706
0.16202006 -0.25320125 -0.23472011
0.16206978 -0.2542592 -0.23424208
0.16145758 -0.2536086 -0.23208784
0.16099158 -0.25332507 -0.23031048
0.16104075 -0.25437135 -0.22983773
0.16050035 -0.2538803 -0.22788198
0.15995982 -0.25337866 -0.22593266
0.16000845 -0.25441322 -0.2254652
0.15946664 -0.25389287 -0.2235227
0.1589981 -0.25355577 -0.22176945
0.1585291 -0.25320852 -0.2200209
0.15857698 -0.25422695 -0.21956073
0.15803331 -0.25366697 -0.21763605
0.15756305 -0.25329325 -0.21589936
0.1576104 -0.2543007 -0.21544416
0.15721293 -0.25410965 -0.21389517
0.15674202 -0.25371248 -0.21217108
0.15678893 -0.25471044 -0.21172017
0.15631679 -0.2542964 -0.21000172
0.15591834 -0.25407457 -0.20846863
0.15544526 -0.2536408 -0.20675911
0.15549149 -0.25462407 -0.20631483
0.15509136 -0.25437784 -0.20479053
0.15461771 -0.25392088 -0.20309377
0.15466349 -0.2548946 -0.2026538
0.15426289 -0.25462735 -0.20114124
0.15386188 -0.25435126 -0.1996326
0.15345977 -0.2540644 -0.19812632
0.15350492 -0.25502497 -0.1976923
0.15310282 -0.25472674 -0.19619349
0.1527003 -0.25441974 -0.19469869
0.15274504 -0.2553715 -0.19426866
0.15234192 -0.25505129 -0.19277976
0.15193836 -0.25472227 -0.19129486
0.15198268 -0.25566524 -0.19086881
0.15157765 -0.25532052 -0.18938783
0.15117301 -0.25496933 -0.1879127
0.15076889 -0.25461206 -0.18644376
0.15081258 -0.25554183 -0.18602365
0.15040696 -0.25516877 -0.18455857
0.15000089 -0.25478688 -0.1830974
0.15004417 -0.25570783 -0.18268128
0.14971246 -0.25553203 -0.18139921
0.14937925 -0.25534555 -0.18011782
0.1494222 -0.25625917 -0.17970501
0.1490157 -0.25584695 -0.17826173
0.1487564 -0.25586268 -0.17716005
0.14842276 -0.25565273 -0.17589206
0.14846519 -0.25655538 -0.17548421
0.14828102 -0.25678197 -0.17456178
0.14816962 -0.25722244 -0.17380668
0.14821188 -0.25812137 -0.17340052
0.14803106 -0.25834915 -0.17249142
0.14784573 -0.25855958 -0.17157456
0.14788777 -0.25945413 -0.17117037
0.14747289 -0.25896245 -0.16974337
0.14721437 -0.2589389 -0.1686705
0.1468063 -0.25845417 -0.16726778
0.1468478 -0.259337 -0.16686888
0.14666677 -0.25953737 -0.16597672
0.14624193 -0.2589843 -0.16454782
0.14628312 -0.25986046 -0.16415192
0.14671193 -0.26193506 -0.16460909
0.22223923 -0.1737706 -0.5480278
0.18456131 -0.13144039 -0.4150658
0.1846269 -0.13283597 -0.41443524
0.18406554 -0.13348596 -0.41161898
0.1841022 -0.13484044 -0.410892
0.18322131 -0.13508439 -0.40697885
0.18328609 -0.13646264 -0.4063561
0.18262316 -0.13694575 -0.4032159
0.18194951 -0.13740079 -0.40004838
0.18201354 -0.1387632 -0.39943278
0.18166326 -0.13960333 -0.39739212
0.18127677 -0.14038904 -0.39523268
0.18134037 -0.14174213 -0.39462128
0.18133086 -0.14300084 -0.39375997
0.1812725 -0.14419451 -0.39273286
0.18133414 -0.14554302 -0.392116
0.18139763 -0.14689396 -0.3915056
0.18146741 -0.14825328 -0.3909165
0.18173046 -0.149872 -0.39098194
0.18179408 -0.15122518 -0.39037052
0.18213108 -0.1529506 -0.39068145
0.18246968 -0.15468372 -0.39099422
0.18253356 -0.15604278 -0.39038014
0.18280618 -0.15769233 -0.39046618
0.18287878 -0.15906571 -0.38987997
0.1834754 -0.16117902 -0.39104432
0.18353966 -0.16254611 -0.39042664
0.18408695 -0.16460475 -0.39141643
0.18469803 -0.16676502 -0.39261183
0.1847628 -0.16814312 -0.39198914
0.18550786 -0.17051554 -0.39361715
0.18645355 -0.17319669 -0.39589873
0.18651912 -0.17459147 -0.39526853
0.18741778 -0.17722876 -0.39737844
0.18830277 -0.17986202 -0.39943263
0.1892631 -0.18262535 -0.40172303
0.18932994 -0.18404728 -0.40108055
0.19023389 -0.18675083 -0.4031697
0.19105466 -0.18934277 -0.40497717
0.1911223 -0.19078162 -0.40432706
0.19155498 -0.1927902 -0.40486115
0.19195935 -0.19476148 -0.40529883
0.19236878 -0.1967474 -0.40574858
0.19243693 -0.19819735 -0.40509346
0.19304667 -0.20051377 -0.40618125
0.19346492 -0.20253259 -0.40664706
0.19353351 -0.203992 -0.40598765
0.19394429 -0.20600891 -0.4064229
0.19429724 -0.20793773 -0.4066691
0.19436614 -0.20940378 -0.4060067
0.1947813 -0.21144412 -0.4064454
0.1952661 -0.2136074 -0.40710062
0.19582112 -0.21589662 -0.40797302
0.19589065 -0.21737583 -0.40730464
0.19644544 -0.2196788 -0.408167
0.19720109 -0.22233416 -0.4096556
0.1972712 -0.22382572 -0.40898165
0.19789737 -0.22627747 -0.4100513
0.19866517 -0.22898585 -0.41155705
0.1987359 -0.23049065 -0.4108771
0.19923851 -0.23275374 -0.41154325
0.19998379 -0.2354535 -0.4129587
0.2003589 -0.23750927 -0.41321665
0.20043032 -0.23902892 -0.41253
0.20103247 -0.24150078 -0.41348413
0.20166689 -0.24404107 -0.4145311
0.20173886 -0.24557221 -0.41383928
0.20211147 -0.24765138 -0.41407126
0.20271668 -0.25016266 -0.41501275
0.20278905 -0.25170252 -0.41431695
0.20304766 -0.2535872 -0.4141899
0.20298879 -0.25488454 -0.41309297
0.20250867 -0.25539127 -0.41071638
0.2025808 -0.2569259 -0.410023
0.20194377 -0.2571203 -0.4071815
0.20104297 -0.25680012 -0.40355143
0.20111427 -0.25831717 -0.40286598
0.19995232 -0.25746828 -0.39846784
0.19869344 -0.2564091 -0.3937938
0.19876349 -0.2578994 -0.3931204
0.19749904 -0.25679153 -0.3884543
0.19636503 -0.25591362 -0.38419417
0.19522808 -0.25500715 -0.37994015
0.1952963 -0.25645852 -0.37928438
0.19423285 -0.25566378 -0.3752707
0.19323573 -0.25497997 -0.37146732
0.19330287 -0.25640845 -0.3708219
0.19224253 -0.25556737 -0.36685175
0.19124791 -0.25483793 -0.3630888
0.191314 -0.25624368 -0.36245358
0.19028983 -0.25542405 -0.35862353
0.18929465 -0.25464347 -0.35489163
0.18836734 -0.2539828 -0.35137063
0.18843187 -0.25535595 -0.3507502
0.18750338 -0.25466502 -0.34724393
0.1865756 -0.253957 -0.34375182
0.18663917 -0.25530958 -0.34314066
0.18570852 -0.25456777 -0.33965838
0.18477844 -0.25380868 -0.33618978
0.18484105 -0.25514075 -0.3355879
0.1839793 -0.2544998 -0.33233348
0.18318678 -0.25399014 -0.3292885
0.18232584 -0.25331724 -0.32605836
0.18238714 -0.25462148 -0.32546905
0.18166502 -0.25422445 -0.3226506
0.18087202 -0.25365835 -0.31964037
0.18093254 -0.2549457 -0.3190587
0.18020952 -0.2545099 -0.31626174
0.17948489 -0.25405604 -0.31346965
0.17954464 -0.25532725 -0.31289527
0.17874847 -0.25469247 -0.30991635
0.1779507 -0.25403824 -0.30694312
0.17715363 -0.25337 -0.30398223
0.17721215 -0.25461483 -0.30341977
0.17641307 -0.2539184 -0.3004686
0.17561388 -0.25320604 -0.29752734
0.17567156 -0.25443333 -0.2969728
0.17486972 -0.25369135 -0.29403955
0.17413934 -0.25309807 -0.29131392
0.17419623 -0.2543085 -0.290767
0.17339371 -0.25352642 -0.28785706
0.17273311 -0.253059 -0.28534666
0.17207119 -0.25257546 -0.2828412
0.17212698 -0.25376245 -0.28230488
0.17146468 -0.25325844 -0.27981108
0.17072986 -0.25256994 -0.27712852
0.17078492 -0.25374153 -0.27659917
0.17019276 -0.25337145 -0.27431703
0.16959952 -0.25298697 -0.2720395
0.16900612 -0.25259057 -0.2697693
0.16906026 -0.25374237 -0.26924887
0.16853754 -0.25349924 -0.26717982
0.16794266 -0.25307056 -0.2649242
0.1679962 -0.25420994 -0.2644094
0.16732866 -0.25358608 -0.26197144
0.16673218 -0.25312367 -0.259731
0.16678508 -0.2542491 -0.25922248
0.16625944 -0.2539444 -0.25718126
0.16558959 -0.25327152 -0.25476545
0.16506283 -0.25294194 -0.2527355
0.16511483 -0.2540483 -0.2522356
0.16451526 -0.25352067 -0.2500246
0.16391507 -0.25297982 -0.24781956
0.16396645 -0.25407296 -0.24732563
0.16343741 -0.25369504 -0.24531755
0.16290826 -0.25330648 -0.24331589
0.16295908 -0.25438792 -0.24282725
0.16242906 -0.2539817 -0.24083349
0.16182631 -0.2533782 -0.23865835
0.16136742 -0.25313413 -0.23686188
0.16141741 -0.25419798 -0.23638119
0.1608855 -0.25375077 -0.23440598
0.16028067 -0.25310335 -0.23225072
0.1603301 -0.25415474 -0.23177566
0.15986958 -0.25386852 -0.22999983
0.15933572 -0.25338027 -0.22804315
0.15938462 -0.2544207 -0.22757305
0.1588504 -0.25391603 -0.22562547
0.15831514 -0.25339848 -0.22368206
0.15785235 -0.2530639 -0.22192802
0.15790047 -0.25408745 -0.22146554
0.15743697 -0.2537375 -0.21971852
0.15689985 -0.25318035 -0.21779291
0.15694745 -0.25419292 -0.2173354
0.15648268 -0.25381655 -0.21560024
0.15609014 -0.2536276 -0.21405056
0.15613729 -0.25463063 -0.21359734
0.1556719 -0.25423083 -0.21187477
0.15520549 -0.25381932 -0.21015553
0.15481195 -0.25359955 -0.20862176
0.15485841 -0.25458798 -0.20817515
0.15439084 -0.25415155 -0.20646717
0.15399565 -0.2539074 -0.20494218
0.15404165 -0.25488627 -0.2044999
0.1535735 -0.25442666 -0.20280464
0.15317784 -0.25416148 -0.20129141
0.1532234 -0.25513083 -0.20085342
0.15282708 -0.25485247 -0.1993461
0.1524297 -0.25456333 -0.19784111
0.15203252 -0.25426725 -0.1963416
0.15207747 -0.2552234 -0.19590957
0.15167968 -0.2549141 -0.1944161
0.15128148 -0.254596 -0.19292654
0.151326 -0.25554338 -0.19249848
0.15092716 -0.25521207 -0.19101489
0.15052706 -0.2548695 -0.18953322
0.15057118 -0.25580803 -0.18910915
0.15017124 -0.25545454 -0.18763535
0.14977184 -0.255095 -0.18616769
0.14937113 -0.25472406 -0.18470193
0.14941461 -0.25564942 -0.18428382
0.14901327 -0.25526527 -0.18282394
0.14868565 -0.2550912 -0.18154132
0.14872877 -0.2560085 -0.18112685
0.14839952 -0.25582013 -0.17984654
0.14799792 -0.25540996 -0.17840259
0.14804065 -0.2563192 -0.17799176
0.14778452 -0.2563334 -0.17689097
0.14745481 -0.25612158 -0.17562406
0.14727311 -0.25634924 -0.17470127
0.14731543 -0.25724965 -0.17429443
0.14720565 -0.25768936 -0.17353979
0.14702725 -0.2579182 -0.17263035
0.1470694 -0.25881496 -0.17222516
0.14688644 -0.25902423 -0.17130895
0.14647652 -0.2585347 -0.16988127
0.14651835 -0.2594248 -0.16947909
0.14626297 -0.2593997 -0.1684071
0.1458596 -0.25891274 -0.16700566
0.14568098 -0.25911415 -0.16611314
0.14572236 -0.25999478 -0.16571523
0.14530239 -0.2594394 -0.16428766
0.145727 -0.26151222 -0.16474539
0.14576836 -0.26239207 -0.16434783
0.20931625 -0.16017497 -0.50959426
0.20939547 -0.16186027 -0.5088328
0.18264166 -0.13166258 -0.41315487
0.18348184 -0.1339822 -0.41526186
0.18289015 -0.13458683 -0.41231284
0.18295558 -0.13597906 -0.41168377
0.18187447 -0.13596156 -0.40703002
0.18108416 -0.13628097 -0.40341058
0.18114856 -0.13765128 -0.4027914
0.18031801 -0.13789359 -0.3990489
0.17989057 -0.13862972 -0.39672253
0.17995428 -0.13998489 -0.3961102
0.17943427 -0.14058638 -0.39347255
0.17942049 -0.14183472 -0.3925958
0.17916286 -0.14276165 -0.39087734
0.17922606 -0.14410612 -0.39026985
0.17915604 -0.1452731 -0.3892037
0.17921807 -0.14661464 -0.38859308
0.17928119 -0.14795764 -0.38798627
0.17941068 -0.1493911 -0.38760665
0.17974065 -0.15110113 -0.38791102
0.17980394 -0.15244773 -0.38730258
0.18013853 -0.15417233 -0.3876173
0.18040767 -0.15581058 -0.38770622
0.18067718 -0.15745352 -0.38779363
0.18074082 -0.15880756 -0.38718182
0.1812083 -0.16074061 -0.38793364
0.18187372 -0.16296759 -0.38934708
0.18193787 -0.16433252 -0.38873035
0.18241546 -0.1663027 -0.3895014
0.183083 -0.16856124 -0.39090335
0.18314767 -0.16993716 -0.39028168
0.18388996 -0.17232558 -0.3919212
0.18495509 -0.17521325 -0.39462703
0.18597795 -0.17805691 -0.39717913
0.18604396 -0.1794613 -0.39654458
0.18705645 -0.18231785 -0.39904356
0.18788165 -0.18490411 -0.40091136
0.18794852 -0.18632688 -0.40026852
0.18876532 -0.18892269 -0.4020937
0.1891819 -0.19090341 -0.40259457
0.18924932 -0.192338 -0.40194637
0.1896607 -0.19432089 -0.40242344
0.1900596 -0.19629061 -0.40285528
0.19060346 -0.19850086 -0.40375516
0.19067147 -0.19994782 -0.40310138
0.19108349 -0.20195681 -0.40356404
0.1914914 -0.20396586 -0.404009
0.19155975 -0.20542015 -0.40335193
0.19190614 -0.20733695 -0.40359178
0.1922505 -0.20925583 -0.40382156
0.19231912 -0.21071605 -0.4031618
0.19286504 -0.21298432 -0.4040325
0.19334976 -0.21515779 -0.4047013
0.19395767 -0.21755044 -0.40575817
0.19402702 -0.21902598 -0.40509146
0.19465011 -0.22146073 -0.40618622
0.19520003 -0.22377893 -0.40704164
0.1952699 -0.22526547 -0.40636995
0.19588925 -0.22772007 -0.40743563
0.1963809 -0.22995916 -0.40809128
0.19645126 -0.23145604 -0.40741494
0.19686653 -0.23357071 -0.40782252
0.19720937 -0.23556165 -0.40799856
0.19756603 -0.23758286 -0.40821433
0.19763684 -0.23908937 -0.40753362
0.19823809 -0.24156658 -0.40850645
0.19859849 -0.24361096 -0.4087233
0.19866972 -0.24512619 -0.40803868
0.1992651 -0.24761583 -0.40897796
0.19988215 -0.25015607 -0.40997767
0.1999539 -0.25168264 -0.40928793
0.2002829 -0.2536949 -0.40939027
0.20022747 -0.25498253 -0.40830803
0.20000719 -0.25595337 -0.40672195
0.20007886 -0.25747824 -0.40603295
0.19923802 -0.25724506 -0.4025572
0.19809423 -0.25640795 -0.39816967
0.19816485 -0.25791034 -0.39749083
0.19700179 -0.2570005 -0.39306766
0.19575424 -0.25590107 -0.38840407
0.19450009 -0.2547634 -0.38373703
0.19456878 -0.25622487 -0.38307667
0.1934443 -0.25530773 -0.37882474
0.19232588 -0.25438002 -0.37460595
0.19239339 -0.25581643 -0.37395692
0.1913425 -0.25499132 -0.36996228
0.190196 -0.25395066 -0.36569613
0.19026235 -0.25536257 -0.36505818
0.18928353 -0.25463125 -0.36131322
0.1883717 -0.2540181 -0.35777998
0.18738912 -0.25324 -0.35404938
0.18745397 -0.25461972 -0.35342598
0.18660663 -0.25409427 -0.3501135
0.18562311 -0.25326595 -0.3464117
0.185687 -0.25462514 -0.34579757
0.18484041 -0.25405702 -0.34251636
0.18392159 -0.25331816 -0.33903515
0.18398455 -0.25465754 -0.33843
0.18320583 -0.25419155 -0.33537486
0.1823562 -0.2535569 -0.332124
0.18157586 -0.25305513 -0.32908523
0.18163756 -0.25436738 -0.3284923
0.18085596 -0.2538392 -0.3254654
0.18021417 -0.25360164 -0.32285148
0.18027508 -0.25489777 -0.32226586
0.1794905 -0.25432488 -0.31925532
0.17877658 -0.25389305 -0.31645724
0.1788367 -0.2551723 -0.31587923
0.17812066 -0.2547141 -0.3130893
0.17733437 -0.2540836 -0.31010914
0.1764776 -0.25327826 -0.30693927
0.17653649 -0.25453117 -0.30637318
0.17581782 -0.2540146 -0.30361015
0.17495959 -0.2531648 -0.3004631
0.17501765 -0.25440013 -0.29990494
0.17429705 -0.25384185 -0.29716083
0.17350651 -0.2531075 -0.2942304
0.1735638 -0.254326 -0.29367983
0.17284127 -0.25372672 -0.29095438
0.1720487 -0.2529491 -0.28804338
0.17139557 -0.25248352 -0.28552982
0.1714517 -0.2536778 -0.2849902
0.17079829 -0.25319192 -0.2824886
0.17014419 -0.25269145 -0.27999374
0.17019962 -0.25387108 -0.27946073
0.16954452 -0.25334868 -0.27697578
0.16895977 -0.2529825 -0.2746923
0.16901456 -0.2541482 -0.27416557
0.16842836 -0.25376096 -0.27188957
0.16784163 -0.2533607 -0.2696197
0.16725476 -0.25294846 -0.26735723
0.16730863 -0.2540944 -0.26683944
0.16672082 -0.25366235 -0.26458582
0.16620328 -0.25339198 -0.26252946
0.16625656 -0.25452548 -0.26201734
0.16559628 -0.25388473 -0.25958756
0.16507727 -0.25358358 -0.25754508
0.16512991 -0.25470385 -0.2570389
0.16453902 -0.25420654 -0.25481468
0.1639475 -0.253696 -0.25259638
0.16335535 -0.25317228 -0.25038406
0.16340707 -0.2542728 -0.24988683
0.16288565 -0.2539119 -0.24787301
0.16229197 -0.25335592 -0.2456752
0.16234311 -0.25444397 -0.24518359
0.16182028 -0.25405303 -0.24318331
0.16129687 -0.2536504 -0.24118836
0.16134746 -0.25472674 -0.24070203
0.16075139 -0.25411943 -0.23852743
0.16022655 -0.25368673 -0.236546
0.1597016 -0.25324345 -0.23457098
0.15975133 -0.25430143 -0.23409294
0.15929669 -0.2540283 -0.2323099
0.15876998 -0.25355527 -0.23034668
0.15881918 -0.25460228 -0.2298736
0.1582921 -0.25411293 -0.2279195
0.15776399 -0.25361058 -0.22596951
0.15781264 -0.25464585 -0.22550172
0.15728419 -0.2541272 -0.22356087
0.15682694 -0.2537907 -0.22180808
0.15636872 -0.25344262 -0.22005865
0.15641662 -0.2544618 -0.21959814
0.15588629 -0.25390357 -0.21767516
0.15542679 -0.25352898 -0.21593757
0.15547417 -0.25453717 -0.21548203
0.15501499 -0.25415 -0.213754
0.1545548 -0.2537512 -0.2120293
0.15460171 -0.25474912 -0.2115784
0.15421332 -0.25453657 -0.21004161
0.15382396 -0.25431368 -0.20850733
0.15336214 -0.2538804 -0.20679818
0.15340838 -0.2548644 -0.20635359
0.15301853 -0.25462037 -0.20483102
0.15255618 -0.25416395 -0.20313467
0.15260199 -0.2551384 -0.20269437
0.15221107 -0.25487173 -0.20118213
0.15189184 -0.2548018 -0.19985041
0.15150009 -0.25451812 -0.19834566
0.1515453 -0.25548014 -0.197911
0.15108001 -0.25497344 -0.19623482
0.15068719 -0.254667 -0.19474034
0.15073195 -0.2556195 -0.19430996
