ply
format ascii 1.0
element vertex 1315
property float x
property float y
property float z
end_header
-0.003329959 -0.36022708 -0.2878575
-0.0034225043 -0.36017606 -0.286211
-0.003379684 -0.36133915 -0.28557384
-0.0035408705 -0.36065978 -0.28343108
-0.0036800636 -0.3601711 -0.28146034
-0.003637682 -0.3613223 -0.2808297
-0.0038000538 -0.36061168 -0.27870342
-0.003963085 -0.35988668 -0.27658263
-0.004103938 -0.3593559 -0.274633
-0.004062228 -0.36048883 -0.27401233
-0.004203312 -0.35994476 -0.2720747
-0.0043449984 -0.35938776 -0.27014184
-0.0043037008 -0.3605095 -0.26952732
-0.004446001 -0.35993576 -0.26760375
-0.004565947 -0.35956147 -0.26584804
-0.004525036 -0.36067268 -0.26523927
-0.004668122 -0.36007363 -0.26333222
-0.0048118304 -0.3594614 -0.26142976
-0.004932638 -0.35905564 -0.2596969
-0.004892319 -0.36015078 -0.25909695
-0.0050138943 -0.3597282 -0.25737047
-0.0051129344 -0.35951087 -0.2558082
-0.005072952 -0.3605969 -0.25521323
-0.0052183545 -0.35993394 -0.2533418
-0.005317957 -0.3596967 -0.2517936
-0.005278335 -0.3607729 -0.251204
-0.0054016905 -0.360302 -0.24950406
-0.0055020894 -0.36004302 -0.24796776
-0.0056261416 -0.3595532 -0.24627817
-0.0055870344 -0.36061543 -0.24569625
-0.0056882235 -0.36033484 -0.24417192
-0.0057897232 -0.36004585 -0.24265218
-0.005750926 -0.36109966 -0.24207488
-0.005852533 -0.3608015 -0.24056442
-0.0059782364 -0.36026546 -0.23890102
-0.0059397756 -0.36131018 -0.2383287
-0.0060428465 -0.3609839 -0.23682573
-0.006145341 -0.36065778 -0.23533317
-0.006249012 -0.36031488 -0.23383957
-0.006211014 -0.361347 -0.23327415
-0.0063375896 -0.36077237 -0.23164198
-0.0064649037 -0.36018425 -0.23001274
-0.0064272643 -0.36120665 -0.22945267
-0.0065311766 -0.360839 -0.22798494
-0.0066352673 -0.36046427 -0.22652265
-0.006597937 -0.36147827 -0.22596717
-0.00670074 -0.36110824 -0.2245228
-0.0067809187 -0.36095688 -0.22322789
-0.0068585966 -0.36082593 -0.22195408
-0.0068216696 -0.36182898 -0.22140458
-0.006880253 -0.3618816 -0.22025804
-0.0069125076 -0.36219317 -0.2192798
-0.0068757576 -0.3631914 -0.21873295
-0.0069120103 -0.3634591 -0.21773471
-0.0070138406 -0.36306676 -0.21633577
-0.006977318 -0.36405882 -0.2157923
-0.0071433503 -0.36301285 -0.21401013
-0.007129635 -0.36377132 -0.21333225
-0.00721231 -0.36355558 -0.21207026
-0.007176156 -0.36453763 -0.21153228
-0.0073584854 -0.36330545 -0.20967776
-0.0074143023 -0.36334977 -0.2085925
-0.007378479 -0.3643228 -0.20805945
0.00723863 -0.18708096 -0.7388202
-0.009155477 -0.13227002 -0.48861808
-0.009105499 -0.13362756 -0.4878744
-0.010284148 -0.13065155 -0.4686655
-0.010872351 -0.1296892 -0.45841777
-0.011373978 -0.1289918 -0.44952232
-0.011327771 -0.13024691 -0.44883475
-0.011862337 -0.12936817 -0.43952665
-0.012292403 -0.12883487 -0.43181846
-0.012247836 -0.13004541 -0.4311553
-0.012855437 -0.12878872 -0.4209019
-0.013298054 -0.12811503 -0.41312668
-0.013255248 -0.12927777 -0.4124897
-0.013728702 -0.12843166 -0.4043316
-0.014122837 -0.12786008 -0.39737225
-0.014582825 -0.12699643 -0.3894988
-0.014542253 -0.12809844 -0.38889506
-0.014922509 -0.127503 -0.38223642
-0.015319668 -0.12680903 -0.375373
-0.015280409 -0.1278754 -0.3747888
-0.0156148495 -0.1273949 -0.3688777
-0.015964687 -0.12682395 -0.36278102
-0.015926588 -0.12785882 -0.36221412
-0.01626143 -0.12731086 -0.35638055
-0.0165977 -0.12673092 -0.35055974
-0.016902067 -0.12626272 -0.34521934
-0.016865615 -0.12725282 -0.34467694
-0.017204795 -0.12659678 -0.33889565
-0.017493837 -0.12613642 -0.33384407
-0.01745844 -0.12709786 -0.33331737
-0.017766345 -0.12651962 -0.32804722
-0.01802447 -0.12614301 -0.32349232
-0.01799003 -0.12707852 -0.32297984
-0.018232826 -0.12674245 -0.31867233
-0.018458396 -0.12646733 -0.31462362
-0.01866782 -0.1262499 -0.3108165
-0.018634545 -0.1271538 -0.31032133
-0.018828046 -0.12698716 -0.30676037
-0.019038588 -0.12672442 -0.3029889
-0.019006008 -0.12760937 -0.3025041
-0.019183367 -0.12748235 -0.29920757
-0.019342529 -0.12742984 -0.2961716
-0.019310541 -0.12829867 -0.29569563
-0.01938638 -0.12863714 -0.29378906
-0.019462062 -0.12896933 -0.29189345
-0.019394496 -0.13000846 -0.29189545
-0.019362774 -0.13087012 -0.2914234
-0.019348586 -0.13164327 -0.29072165
-0.019264426 -0.13277082 -0.29093528
-0.019232653 -0.13363387 -0.2904625
-0.019217512 -0.13441132 -0.28977376
-0.019131698 -0.13555366 -0.29000095
-0.019116694 -0.13633053 -0.2893103
-0.019084891 -0.1371944 -0.28883705
-0.019017719 -0.13824476 -0.28881717
-0.018914491 -0.13948865 -0.2892553
-0.018882532 -0.1403567 -0.28877974
-0.018814616 -0.14141782 -0.28876087
-0.0187465 -0.14248222 -0.28874165
-0.018714437 -0.1433531 -0.28826457
-0.018646384 -0.14442058 -0.2882403
-0.018560264 -0.14558953 -0.28843975
-0.018474005 -0.14676258 -0.28863668
-0.018441737 -0.14763907 -0.28815654
-0.018337315 -0.14891861 -0.2885728
-0.018268747 -0.1500012 -0.28853938
-0.018236324 -0.15088189 -0.28805694
-0.018149337 -0.15207238 -0.28824598
-0.018062327 -0.15326636 -0.28843114
-0.01802975 -0.15415125 -0.28794637
-0.017942382 -0.15535222 -0.28812957
-0.01785499 -0.15655668 -0.28830892
-0.017749295 -0.15787114 -0.28870583
-0.017716458 -0.15876305 -0.28821722
-0.017628528 -0.15997943 -0.2883919
-0.01754057 -0.16119929 -0.28856277
-0.01750758 -0.1620954 -0.28807187
-0.017401103 -0.1634309 -0.28845733
-0.017331034 -0.16455197 -0.28840446
-0.017297888 -0.16545229 -0.28791124
-0.017209312 -0.16668898 -0.2880729
-0.017120577 -0.16792986 -0.28823227
-0.017031696 -0.16917491 -0.2883893
-0.016998317 -0.17008154 -0.2878926
-0.0169092 -0.1713329 -0.28804618
-0.01681993 -0.17258847 -0.28819746
-0.016786397 -0.17349932 -0.28769848
-0.016696895 -0.17476116 -0.28784624
-0.01658855 -0.17614499 -0.28820702
-0.016554836 -0.17706074 -0.28770536
-0.016464917 -0.17833382 -0.28784704
-0.01639347 -0.17949216 -0.28777388
-0.016303267 -0.18077299 -0.28791142
-0.016269347 -0.18169434 -0.28740665
-0.016178906 -0.18298149 -0.28754073
-0.016088314 -0.18427284 -0.2876725
-0.01605424 -0.1851984 -0.28716546
-0.015963413 -0.18649605 -0.28729376
-0.015872553 -0.18779711 -0.2874184
-0.015838325 -0.18872687 -0.28690904
-0.015747115 -0.19003503 -0.2870316
-0.015655626 -0.1913482 -0.28715315
-0.015564107 -0.19266474 -0.28727108
-0.015529646 -0.19360082 -0.28675827
-0.01543789 -0.1949237 -0.28687274
-0.015345992 -0.19625072 -0.28698486
-0.015311374 -0.19719099 -0.28646976
-0.015219234 -0.19852437 -0.28657845
-0.015126944 -0.19986193 -0.28668484
-0.015092173 -0.20080641 -0.28616744
-0.014999648 -0.20215029 -0.28627035
-0.014906844 -0.20349921 -0.28637233
-0.014814008 -0.20485152 -0.28647065
-0.014779004 -0.2058023 -0.2859498
-0.014685938 -0.20716088 -0.28604466
-0.01459272 -0.20852366 -0.2861372
-0.014557563 -0.20947863 -0.28561404
-0.014444684 -0.21098574 -0.28590718
-0.014331728 -0.2124975 -0.28619584
-0.014296365 -0.21345808 -0.28566962
-0.014221851 -0.21469991 -0.28555068
-0.014108297 -0.21622524 -0.28583384
-0.01399454 -0.21775615 -0.28611395
-0.013958918 -0.21872376 -0.28558388
-0.0138449995 -0.22026204 -0.28585786
-0.013730728 -0.22180694 -0.28613028
-0.0136949 -0.22278015 -0.28559712
-0.013580314 -0.22433352 -0.28586498
-0.013465525 -0.22589247 -0.28612974
-0.013429489 -0.22687128 -0.28559354
-0.013314388 -0.22843866 -0.2858537
-0.013199077 -0.23001164 -0.28611085
-0.013083567 -0.2315902 -0.28636482
-0.013047222 -0.23257741 -0.285824
-0.012931238 -0.23416561 -0.28607506
-0.0127954865 -0.23590758 -0.28651688
-0.01275891 -0.23690109 -0.2859726
-0.012642551 -0.23850273 -0.2862139
-0.012525818 -0.24011129 -0.28645378
-0.012389049 -0.24187762 -0.28688458
-0.012352137 -0.24288023 -0.28633532
-0.012195111 -0.24481049 -0.28695345
-0.01205767 -0.24659505 -0.2873743
-0.012020475 -0.24760535 -0.28682083
-0.011902578 -0.24924499 -0.28704405
-0.011764507 -0.25104642 -0.28745577
-0.011727079 -0.25206307 -0.28689885
-0.011588623 -0.25387502 -0.2873048
-0.011449904 -0.25569397 -0.28770694
-0.011310932 -0.2575199 -0.2881052
-0.011273117 -0.25854707 -0.2875425
-0.011133762 -0.26038352 -0.287935
-0.011014279 -0.262066 -0.28813487
-0.010976232 -0.26309946 -0.28756872
-0.010836454 -0.26495114 -0.28795016
-0.010696016 -0.26681307 -0.28833148
-0.010657711 -0.26785353 -0.2877615
-0.010517088 -0.2697243 -0.2881352
-0.01037621 -0.2716021 -0.28850505
-0.010235068 -0.27348694 -0.28887105
-0.010196377 -0.2745379 -0.28829533
-0.010054845 -0.27643326 -0.2886556
-0.009933439 -0.27816778 -0.28882715
-0.009894514 -0.27922505 -0.28824797
-0.009731725 -0.2813082 -0.28878507
-0.009589296 -0.28322807 -0.2891319
-0.009550088 -0.28429306 -0.2885485
-0.009407496 -0.28622153 -0.28888756
-0.009264422 -0.2881589 -0.28922477
-0.009100323 -0.2902777 -0.28974226
-0.009060701 -0.29135388 -0.2891527
-0.008916721 -0.29331148 -0.28948206
-0.008751861 -0.29545066 -0.2899885
-0.0087119555 -0.2965346 -0.28939468
-0.0085881725 -0.29833275 -0.2895321
-0.008423143 -0.30048686 -0.290023
-0.008382981 -0.30157778 -0.28942537
-0.008258617 -0.30339146 -0.28955445
-0.008092314 -0.3055699 -0.2900394
-0.007926031 -0.3077539 -0.29051688
-0.007885457 -0.30885598 -0.28991312
-0.007739478 -0.31087247 -0.29020694
-0.007613994 -0.3127154 -0.29032072
-0.0075731874 -0.31382382 -0.2897135
-0.0074262214 -0.31586033 -0.29000115
-0.0072793374 -0.31790087 -0.2902821
-0.0072382716 -0.3190163 -0.28967103
-0.0070489156 -0.3214381 -0.29029742
-0.0068800896 -0.32368517 -0.29074472
-0.0067113214 -0.3259374 -0.29118434
-0.0066697667 -0.32706612 -0.290566
-0.006521142 -0.32914758 -0.2908291
-0.0063512595 -0.33142337 -0.29126066
-0.00630942 -0.33255985 -0.29063806
-0.0061176503 -0.33504027 -0.29123724
-0.0059684105 -0.3371451 -0.29148278
-0.0059262617 -0.33828998 -0.2908556
-0.0057763136 -0.34040824 -0.2910979
-0.0056052324 -0.34272242 -0.2915042
-0.0054977927 -0.3444648 -0.29139358
-0.0054552816 -0.3456195 -0.290761
-0.0052835327 -0.34795234 -0.29115674
-0.0051759896 -0.3497041 -0.29103634
-0.0051332456 -0.3508651 -0.2904003
-0.0049609016 -0.35321587 -0.29078493
-0.0048529324 -0.3549798 -0.29065728
-0.0048099575 -0.3561471 -0.2900178
-0.004722979 -0.3577212 -0.28972134
-0.0046590767 -0.35908332 -0.28924325
-0.004724541 -0.3592449 -0.28776267
-0.0046816193 -0.36041078 -0.28712398
-0.004747598 -0.36056075 -0.2856482
-0.0048579825 -0.36029086 -0.283838
-0.004815368 -0.36144838 -0.2832039
-0.004926066 -0.36116594 -0.28140348
-0.0050815134 -0.3604559 -0.279272
-0.0050393124 -0.3616022 -0.27864403
-0.005217026 -0.36066926 -0.27636045
-0.0053732307 -0.35993102 -0.27424982
-0.0055080294 -0.3593879 -0.27230957
-0.005466525 -0.36051527 -0.27169198
-0.005580017 -0.36016443 -0.26992375
-0.0057377545 -0.35938433 -0.2678362
-0.005696662 -0.36050048 -0.26722476
-0.0058108997 -0.3601257 -0.26547226
-0.005947715 -0.3595274 -0.2635625
-0.005907009 -0.36063308 -0.2629568
-0.006044214 -0.36002013 -0.2610579
-0.0061597503 -0.3596098 -0.25932512
-0.0062756496 -0.35918966 -0.25759763
-0.0062355124 -0.3602799 -0.2570004
-0.0063298373 -0.3600604 -0.2554395
-0.0064466153 -0.35961637 -0.25372502
-0.0064068143 -0.36069748 -0.25313276
-0.006523871 -0.36024132 -0.25142828
-0.006619354 -0.3599908 -0.24988411
-0.00673709 -0.3595159 -0.24819009
-0.0066978033 -0.36058304 -0.24760549
-0.006816049 -0.36009377 -0.2459197
-0.0069123646 -0.3598154 -0.2443946
-0.006873413 -0.36087343 -0.24381498
-0.0069701863 -0.3605825 -0.24229679
-0.0070672687 -0.36028314 -0.24078318
-0.0070286253 -0.36133277 -0.24020816
-0.0071484665 -0.36079794 -0.23854896
-0.007268974 -0.36025026 -0.23689303
-0.0073442315 -0.36015055 -0.23555225
-0.007306079 -0.36118686 -0.23498452
-0.007404971 -0.36084247 -0.23349272
-0.0075263884 -0.36026537 -0.23185626
-0.007488571 -0.36129257 -0.23129353
-0.0076103956 -0.3607022 -0.22966601
-0.007710369 -0.36032748 -0.22819145
-0.007672886 -0.3613456 -0.2276337
-0.007794263 -0.3607449 -0.22602792
-0.00787079 -0.36059603 -0.22472458
-0.007966688 -0.36024472 -0.22329989
-0.0079296585 -0.36125052 -0.22274889
-0.007984332 -0.36131483 -0.22160172
-0.008058007 -0.36118028 -0.2203359
-0.008021205 -0.3621799 -0.21978827
-0.008034008 -0.3626675 -0.21892172
-0.008084959 -0.3627587 -0.21781315
-0.00804831 -0.3637542 -0.2172678
-0.0081478935 -0.36333573 -0.2158562
-0.008289784 -0.3624723 -0.21418302
-0.008288586 -0.36309266 -0.21342131
-0.008252325 -0.3640776 -0.21288173
-0.008335707 -0.36381188 -0.21159266
-0.008509822 -0.36259168 -0.20974286
-0.008473925 -0.36356673 -0.20920871
-0.00851102 -0.36377472 -0.20822242
0.004855137 -0.18606357 -0.7392492
0.0049309577 -0.18812305 -0.73812103
-0.010676616 -0.13295694 -0.48815718
-0.011794856 -0.1300067 -0.46893746
-0.01235182 -0.12905769 -0.4586841
-0.012304757 -0.13033606 -0.45798376
-0.012780346 -0.12962689 -0.4490962
-0.013286534 -0.12876026 -0.439783
-0.01324123 -0.12999086 -0.43910885
-0.013648841 -0.1294474 -0.43140748
-0.014224717 -0.12820426 -0.42114836
-0.014181159 -0.1293874 -0.42050022
-0.0146009205 -0.12870337 -0.41273192
-0.015049381 -0.12786792 -0.40456933
-0.015422431 -0.12730536 -0.39760616
-0.01538109 -0.12842828 -0.396991
-0.015817653 -0.12755404 -0.38912466
-0.01617766 -0.12696725 -0.38246235
-0.016137734 -0.12805176 -0.38186824
-0.016514558 -0.12734862 -0.37501097
-0.016831102 -0.12687576 -0.36909664
-0.016792411 -0.12792666 -0.36852095
-0.017124258 -0.12734759 -0.3624297
-0.017441323 -0.12680723 -0.35659292
-0.01775979 -0.12623489 -0.35076892
-0.017722825 -0.127239 -0.35021886
-0.018011484 -0.12676372 -0.3448832
-0.018332863 -0.12611526 -0.3390987
-0.01829698 -0.12708998 -0.33856472
-0.018571131 -0.1266229 -0.33351764
-0.018862842 -0.12605159 -0.3282446
-0.018827962 -0.12699902 -0.32772556
-0.01907272 -0.12661637 -0.32317472
-0.019302499 -0.12628588 -0.31886485
-0.01951589 -0.12601595 -0.31481397
-0.019482251 -0.12692969 -0.3143134
-0.01968066 -0.12670727 -0.31050962
-0.019863572 -0.12654515 -0.30694675
-0.019830631 -0.1274399 -0.3064566
-0.020030182 -0.12717222 -0.30268842
-0.020197788 -0.12704937 -0.29939017
-0.020165518 -0.12792587 -0.29891
-0.020316077 -0.12786947 -0.29587662
-0.020386923 -0.12821007 -0.29396915
-0.020457638 -0.12854438 -0.29207265
-0.02042597 -0.12940459 -0.2916014
-0.020360006 -0.13044447 -0.2916029
-0.020345012 -0.13121796 -0.290901
-0.020313315 -0.13207892 -0.29042935
-0.020231487 -0.13320753 -0.2906423
-0.020215588 -0.13398531 -0.2899534
-0.020183839 -0.1348477 -0.28948098
-0.020100417 -0.13599111 -0.28970745
-0.02008467 -0.13676766 -0.289017
-0.020019108 -0.13781732 -0.2889974
-0.019987253 -0.13868259 -0.2885234
-0.019887168 -0.1399279 -0.28896058
-0.01982088 -0.14098829 -0.288942
-0.01978887 -0.14185777 -0.2884657
-0.019722339 -0.1429229 -0.28844598
-0.01965591 -0.14398967 -0.28842202
-0.019623796 -0.14486195 -0.28794417
-0.01954003 -0.14603198 -0.2881429
-0.019456131 -0.14720608 -0.2883391
-0.019354949 -0.14848423 -0.28875595
-0.019322576 -0.14936353 -0.28827426
-0.019255579 -0.15044683 -0.2882404
-0.019171031 -0.15163627 -0.2884299
-0.01913853 -0.15251908 -0.28794625
-0.019053875 -0.15371412 -0.28813073
-0.01896895 -0.15491404 -0.28831434
-0.018936293 -0.15580106 -0.28782842
-0.018851254 -0.15700658 -0.28800705
-0.018748693 -0.15832245 -0.28840303
-0.018663201 -0.15953779 -0.28857812
-0.018630287 -0.1604318 -0.28808838
-0.018544683 -0.16165273 -0.28825855
-0.018441448 -0.16298683 -0.2886446
-0.018408354 -0.16388574 -0.28815216
-0.018339863 -0.16500753 -0.2880988
-0.018253716 -0.16624317 -0.2882609
-0.018220494 -0.1671456 -0.28776655
-0.018134115 -0.16838755 -0.28792518
-0.018047586 -0.16963366 -0.2880815
-0.017960902 -0.17088398 -0.2882355
-0.017927447 -0.17179272 -0.28773767
-0.017840529 -0.17304936 -0.28788823
-0.017753461 -0.17431018 -0.28803644
-0.01771985 -0.17522311 -0.2875363
-0.017614644 -0.17660835 -0.28789613
-0.017527163 -0.17788042 -0.28803825
-0.017493373 -0.17879826 -0.28753543
-0.0174235 -0.1799573 -0.28746182
-0.017335651 -0.1812392 -0.2875986
-0.017247645 -0.1825253 -0.28773308
-0.017213648 -0.18344876 -0.2872272
-0.017125407 -0.18474117 -0.28735828
-0.017037014 -0.1860378 -0.287487
-0.017002862 -0.18696545 -0.2869788
-0.016914356 -0.18826757 -0.28710273
-0.016825577 -0.1895747 -0.28722572
-0.016736524 -0.19088683 -0.28734773
-0.01670214 -0.19182077 -0.2868361
-0.01661298 -0.19313838 -0.2869533
-0.016523657 -0.19446023 -0.2870682
-0.016489118 -0.1953984 -0.28655425
-0.016399574 -0.19672649 -0.28666565
-0.016309867 -0.19805883 -0.28677478
-0.016275173 -0.1990012 -0.28625852
-0.016185235 -0.20033982 -0.2863642
-0.016095143 -0.20168266 -0.28646755
-0.016004777 -0.20303057 -0.28656995
-0.015969852 -0.20397924 -0.28605026
-0.01587937 -0.2053326 -0.28614786
-0.015788738 -0.20669015 -0.28624317
-0.015753658 -0.20764302 -0.28572115
-0.015662793 -0.20900688 -0.285813
-0.015553157 -0.21051258 -0.2861067
-0.015517896 -0.21147038 -0.285582
-0.01540808 -0.21298355 -0.28586975
-0.015335188 -0.21422468 -0.28575107
-0.0152248815 -0.21574861 -0.28603482
-0.015189362 -0.21671341 -0.28550628
-0.015078748 -0.21824576 -0.28578544
-0.014968064 -0.21978265 -0.28606
-0.014932338 -0.22075304 -0.2855284
-0.014821207 -0.22229937 -0.28579986
-0.014709864 -0.22385137 -0.28606832
-0.0146739315 -0.22482736 -0.28553364
-0.014562282 -0.22638772 -0.28579745
-0.0144504225 -0.22795373 -0.28605822
-0.014338357 -0.22952534 -0.28631592
-0.014302117 -0.23050974 -0.28577664
-0.01418975 -0.23208971 -0.28602967
-0.014077015 -0.23367655 -0.2862813
-0.014040568 -0.23466656 -0.28573895
-0.013908732 -0.23641029 -0.28617957
-0.013795618 -0.23801056 -0.28642145
-0.013758939 -0.23900685 -0.28587565
-0.013645349 -0.24061684 -0.2861146
-0.013512505 -0.24238493 -0.28654417
-0.013360341 -0.24431309 -0.2871632
-0.013323274 -0.24531993 -0.28661162
-0.013189755 -0.24710627 -0.2870313
-0.013075109 -0.24874449 -0.28725514
-0.01303781 -0.24975763 -0.2867001
-0.012903667 -0.25156084 -0.28711063
-0.012769264 -0.25337103 -0.2875173
-0.012731708 -0.2543912 -0.28695846
-0.0125969155 -0.25621194 -0.28735942
-0.012461868 -0.25803965 -0.28775647
-0.012326565 -0.25987437 -0.28814968
-0.012288621 -0.260905 -0.28758508
-0.012172288 -0.26258892 -0.287784
-0.012036557 -0.2644389 -0.28816617
-0.011998382 -0.2654758 -0.2875981
-0.011861875 -0.26733953 -0.28797826
-0.011725306 -0.26920858 -0.28835267
-0.011686871 -0.27025256 -0.28778076
-0.011549919 -0.27213213 -0.28814942
-0.011412703 -0.2740187 -0.28851426
-0.011275228 -0.2759123 -0.28887528
-0.011236407 -0.2769668 -0.28829762
-0.01111815 -0.27870277 -0.2884682
-0.010960224 -0.2807838 -0.2890062
-0.010921145 -0.2818453 -0.2884247
-0.0107826395 -0.28376696 -0.28877035
-0.010644095 -0.28569368 -0.28911015
-0.010604758 -0.28676218 -0.2885248
-0.01046561 -0.28870133 -0.28886083
-0.010306219 -0.29082224 -0.2893769
-0.010166301 -0.29277807 -0.28970698
-0.010126551 -0.2938578 -0.2891155
-0.009966404 -0.2959991 -0.2896205
-0.009845875 -0.29779586 -0.2897585
-0.0098058665 -0.2988826 -0.28916317
-0.009645527 -0.30103886 -0.28965265
-0.009524417 -0.30285114 -0.2897823
-0.009484151 -0.30394486 -0.2891831
-0.009322558 -0.30612543 -0.28966665
-0.009160978 -0.30831155 -0.29014271
-0.00901905 -0.31032628 -0.29043725
-0.008978345 -0.3114319 -0.28983158
-0.008856016 -0.31327626 -0.2899444
-0.008713119 -0.315311 -0.2902328
-0.0086721815 -0.31642297 -0.28962365
-0.008529226 -0.31846526 -0.2899034
-0.008345533 -0.32088462 -0.29053083
-0.00818157 -0.32312962 -0.290979
-0.008140168 -0.32425418 -0.29036292
-0.007976098 -0.32650852 -0.29080114
-0.007831541 -0.32858822 -0.29106498
-0.007789856 -0.3297205 -0.29044467
-0.0076246858 -0.33199844 -0.2908748
-0.0074385945 -0.3344764 -0.29147503
-0.007396573 -0.33561778 -0.29084975
-0.007251256 -0.3377244 -0.2910941
-0.0071053756 -0.3398409 -0.29133716
-0.0069391495 -0.34215304 -0.29174432
-0.0068967165 -0.34330562 -0.2911129
-0.0067916443 -0.34504908 -0.29100156
-0.0066247485 -0.34737983 -0.29139814
-0.0065820836 -0.3485387 -0.2907633
-0.006476892 -0.35029152 -0.29064217
-0.0063093947 -0.35264027 -0.29102764
-0.006266499 -0.35380545 -0.29038933
-0.006160886 -0.35557047 -0.290261
-0.0060755466 -0.35714388 -0.2899648
-0.006012423 -0.35850567 -0.28948686
-0.0059693726 -0.35967502 -0.28884625
-0.0060309293 -0.35983482 -0.28736687
-0.006092864 -0.3599865 -0.28589034
-0.00605007 -0.36114892 -0.28525355
-0.0061549623 -0.36087653 -0.28344503
-0.0062599913 -0.36059654 -0.2816436
-0.0062175575 -0.36174914 -0.28101218
-0.006365929 -0.3610359 -0.27888283
-0.0065355427 -0.36010644 -0.2765978
-0.006684458 -0.35937136 -0.27448586
-0.0066427467 -0.3605043 -0.2738652
-0.0067712627 -0.35995832 -0.27192685
-0.006879071 -0.35960993 -0.27015758
-0.006837747 -0.36073238 -0.26954266
-0.006988426 -0.35994908 -0.2674573
-0.0070969868 -0.35957673 -0.26570377
-0.0070560765 -0.36068797 -0.265095
-0.0071866126 -0.36008686 -0.26318714
-0.0073173377 -0.35947672 -0.26128706
-0.0074271983 -0.3590688 -0.25955325
-0.0073868805 -0.36016396 -0.2589533
-0.007497284 -0.3597413 -0.2572275
-0.0075867344 -0.3595239 -0.25566572
-0.0075467518 -0.36060992 -0.25507078
-0.007658038 -0.36016342 -0.25335798
-0.00776943 -0.35970965 -0.25165248
-0.007729809 -0.3607859 -0.2510629
-0.007820571 -0.36053324 -0.24952017
-0.007932823 -0.36005586 -0.2478278
-0.008045408 -0.35956898 -0.246141
-0.008006301 -0.36063126 -0.24555908
-0.008097904 -0.36035076 -0.2440354
-0.008189811 -0.3600619 -0.24251632
-0.008151014 -0.36111572 -0.24193901
-0.008243392 -0.36081424 -0.24042684
-0.0083575705 -0.36028185 -0.23876661
-0.008319109 -0.36132658 -0.23819429
-0.008434128 -0.3607764 -0.23654
-0.008505467 -0.36067492 -0.2352004
-0.008599488 -0.36033258 -0.23370774
-0.00856149 -0.36136472 -0.23314232
-0.00867743 -0.36078513 -0.23150751
-0.008793599 -0.3601971 -0.229879
-0.0087559605 -0.36121947 -0.22931893
-0.008851216 -0.36084265 -0.22784579
-0.008966985 -0.3602443 -0.22623901
-0.00892968 -0.3612576 -0.22568391
-0.009002322 -0.361107 -0.22438174
-0.009093679 -0.36075363 -0.22295843
-0.009145131 -0.36081934 -0.22181068
-0.009108205 -0.36182234 -0.22126122
-0.00917812 -0.36168608 -0.21999653
-0.009189184 -0.3621744 -0.21912965
-0.009152437 -0.36317256 -0.21858285
-0.009200415 -0.3632624 -0.21747519
-0.009295243 -0.362846 -0.21606272
-0.009258744 -0.36383736 -0.21551962
-0.009394609 -0.36297122 -0.21384828
-0.009392229 -0.36359105 -0.21308692
-0.009471454 -0.36332712 -0.2117971
-0.009435326 -0.36430845 -0.2112595
-0.009602372 -0.36308503 -0.20941183
-0.009636933 -0.36329412 -0.20842509
-0.009601117 -0.364267 -0.20789213
-0.00019096874 -0.17674285 -0.69255006
-0.012162283 -0.1326131 -0.4898704
-0.0121121565 -0.13397466 -0.4891245
-0.013268958 -0.1306224 -0.4683035
-0.013748535 -0.1298453 -0.45884153
-0.014157223 -0.1293085 -0.45060825
-0.014110885 -0.13056716 -0.44991872
-0.014586076 -0.12970547 -0.4406676
-0.014947389 -0.12926993 -0.4333358
-0.014902646 -0.13048525 -0.43267003
-0.015461217 -0.12917618 -0.4221969
-0.015868068 -0.12846056 -0.4142462
-0.015825128 -0.12962693 -0.41360724
-0.01625205 -0.12877217 -0.40540493
-0.016619192 -0.12814039 -0.3982113
-0.017031822 -0.1272777 -0.39033318
-0.016991146 -0.12838255 -0.3897279
-0.017345313 -0.12772791 -0.38284966
-0.01768883 -0.12709089 -0.37618113
-0.017649468 -0.12816001 -0.37559545
-0.017961338 -0.12762377 -0.36948422
-0.018291177 -0.12697804 -0.3631273
-0.018253027 -0.1280143 -0.36255962
-0.018552879 -0.12746729 -0.35672644
-0.018840428 -0.12695296 -0.35111862
-0.019127246 -0.12641783 -0.3455552
-0.019090744 -0.12740928 -0.34501204
-0.019409519 -0.12668346 -0.33900633
-0.019669024 -0.12621997 -0.33394453
-0.019633604 -0.12718207 -0.33341748
-0.019894075 -0.12668113 -0.3283853
-0.020124918 -0.12630607 -0.32383224
-0.020090425 -0.12724295 -0.323319
-0.020307468 -0.12690853 -0.3190134
-0.020524245 -0.12655716 -0.31473657
-0.020711593 -0.12633851 -0.31092516
-0.020678291 -0.12724309 -0.3104296
-0.020850431 -0.12707959 -0.30687687
-0.021038609 -0.12681744 -0.30310625
-0.021006003 -0.12770309 -0.30262107
-0.02116406 -0.12757705 -0.2993264
-0.02132166 -0.12743993 -0.29605672
-0.021289673 -0.12830876 -0.29558074
-0.02137139 -0.1285622 -0.29344562
-0.02146838 -0.12872444 -0.29109925
-0.021437133 -0.12958072 -0.29062408
-0.02140554 -0.13043888 -0.29015398
-0.02137502 -0.13129108 -0.28966838
-0.0213109 -0.13233095 -0.28966528
-0.021279255 -0.13319048 -0.2891944
-0.021262735 -0.13396446 -0.28850782
-0.021181857 -0.13510364 -0.28873748
-0.021165706 -0.13587566 -0.28804553
-0.021134032 -0.13673599 -0.28757423
-0.021069828 -0.13778478 -0.2875608
-0.02098932 -0.13893078 -0.28777313
-0.020957517 -0.13979463 -0.28729987
-0.02089292 -0.14085178 -0.2872837
-0.020828295 -0.1419113 -0.28726494
-0.020796388 -0.14277796 -0.28679016
-0.020731527 -0.1438422 -0.28677022
-0.020650346 -0.14500703 -0.28697184
-0.020569144 -0.14617522 -0.28716925
-0.020537032 -0.14704749 -0.2866914
-0.02043902 -0.14832361 -0.28711128
-0.02037379 -0.14940205 -0.28708008
-0.020341521 -0.15027854 -0.2865999
-0.020259488 -0.15146488 -0.28679106
-0.020177417 -0.15265469 -0.2869783
-0.020144993 -0.15353538 -0.28649583
-0.020062694 -0.15473148 -0.28667954
-0.019980242 -0.15593177 -0.28686094
-0.01988096 -0.15724276 -0.2872613
-0.019848278 -0.15813048 -0.286775
-0.019765412 -0.15934198 -0.28695026
-0.01968239 -0.16055767 -0.28712323
-0.019649556 -0.16144958 -0.28663462
-0.019566307 -0.16267157 -0.28680408
-0.019499622 -0.16378777 -0.28675368
-0.019466657 -0.16468318 -0.28626317
-0.019383049 -0.16591497 -0.28642723
-0.019299287 -0.16715096 -0.28658897
-0.01921537 -0.16839112 -0.28674838
-0.019182172 -0.16929285 -0.2862544
-0.019081151 -0.17065352 -0.28662562
-0.01901361 -0.1717908 -0.28656548
-0.018980257 -0.17269674 -0.28606918
-0.01889572 -0.17395373 -0.2862194
-0.018794058 -0.17533189 -0.286581
-0.018760525 -0.17624272 -0.28608203
-0.018675575 -0.17751095 -0.28622615
-0.018590463 -0.1787834 -0.286368
-0.018522276 -0.17994034 -0.2862954
-0.018488536 -0.18085678 -0.28579336
-0.018385936 -0.18226017 -0.28614125
-0.018317444 -0.18342552 -0.286064
-0.01828355 -0.18434617 -0.28555965
-0.018197693 -0.18563893 -0.28569034
-0.018111788 -0.18693511 -0.2858174
-0.01807774 -0.18785998 -0.28531078
-0.017991496 -0.18916327 -0.2854357
-0.017904986 -0.19047156 -0.28555974
-0.017818436 -0.19178323 -0.28568006
-0.017784156 -0.1927144 -0.28516993
-0.017697373 -0.19403239 -0.28528678
-0.017610438 -0.19535455 -0.28540134
-0.017576002 -0.19628991 -0.28488892
-0.01748883 -0.19761841 -0.28500003
-0.017401507 -0.19895108 -0.2851088
-0.017366916 -0.19989066 -0.2845941
-0.01727936 -0.20122966 -0.28469944
-0.017191652 -0.20257284 -0.28480247
-0.01710379 -0.20392025 -0.2849032
-0.017068965 -0.20486611 -0.28438503
-0.01698087 -0.20621978 -0.28448227
-0.016892502 -0.2075786 -0.28457856
-0.016857523 -0.20852867 -0.2840581
-0.016769163 -0.20989193 -0.28414822
-0.016680405 -0.21126127 -0.28423876
-0.016645273 -0.21221554 -0.283716
-0.016538493 -0.2137304 -0.28400454
-0.016449442 -0.21511002 -0.2840876
-0.016324447 -0.21677585 -0.28457096
-0.016289005 -0.21773854 -0.28404358
-0.01619938 -0.21913116 -0.2841216
-0.01607393 -0.22081198 -0.28459463
-0.016038282 -0.22178027 -0.28406417
-0.015948215 -0.22318481 -0.2841357
-0.015840016 -0.2247382 -0.2844032
-0.015804188 -0.2257114 -0.28387004
-0.015695674 -0.22727323 -0.28413293
-0.0155869555 -0.22884062 -0.28439274
-0.015478033 -0.23041365 -0.2846495
-0.0154418945 -0.23139526 -0.28411174
-0.0153326625 -0.23297666 -0.28436387
-0.015205075 -0.23471309 -0.28480837
-0.015168704 -0.235701 -0.28426716
-0.0150587885 -0.2372983 -0.28451276
-0.0149305975 -0.23905142 -0.2849479
-0.014820076 -0.24066204 -0.28518873
-0.01478337 -0.24165903 -0.28464255
-0.014636109 -0.24358378 -0.28526324
-0.014525164 -0.24520865 -0.2854941
-0.014488201 -0.24621266 -0.28494406
-0.014358578 -0.24800147 -0.28536215
-0.014228869 -0.24979587 -0.28577465
-0.014191648 -0.2508069 -0.2852208
-0.014061205 -0.25261477 -0.28563118
-0.013930675 -0.25442812 -0.2860359
-0.01381837 -0.2560896 -0.2862469
-0.013780787 -0.25711045 -0.28568766
-0.013649642 -0.25894064 -0.28608313
-0.013518416 -0.26077628 -0.28647298
-0.013480576 -0.26180413 -0.2859099
-0.013348601 -0.26365343 -0.28629765
-0.0132165495 -0.26550817 -0.28667971
-0.01317845 -0.26654303 -0.28611282
-0.01306488 -0.2682422 -0.2863005
-0.012932212 -0.27011374 -0.28667334
-0.0127803655 -0.27215979 -0.28723025
-0.01274188 -0.27320516 -0.28665757
-0.0126273185 -0.2749277 -0.2868352
-0.0124937445 -0.2768238 -0.2871946
-0.012455027 -0.27787548 -0.2866185
-0.012321068 -0.2797821 -0.28697217
-0.012186847 -0.28169572 -0.287322
-0.012147871 -0.2827544 -0.28674206
-0.012013463 -0.2846767 -0.28708422
-0.011859451 -0.28678158 -0.28760883
-0.011724102 -0.28872222 -0.28794682
-0.011684712 -0.28979212 -0.2873607
-0.011529952 -0.29191732 -0.2878742
-0.011394128 -0.2938744 -0.2882003
-0.011354455 -0.29495203 -0.28760996
-0.011218253 -0.29691955 -0.28793022
-0.011081789 -0.29889414 -0.28824666
-0.011041857 -0.29997873 -0.2876525
-0.010905003 -0.30196387 -0.2879632
-0.010748762 -0.30413416 -0.28844813
-0.01063025 -0.30595765 -0.28857568
-0.010589932 -0.30705276 -0.28797576
-0.010452459 -0.30905977 -0.2882704
-0.010314446 -0.31107637 -0.28856385
-0.010273871 -0.3121785 -0.28796008
-0.010135163 -0.31420854 -0.28825057
-0.00997723 -0.31642538 -0.28870943
-0.009936371 -0.31753522 -0.28810143
-0.009777985 -0.31976455 -0.2885533
-0.009618964 -0.3220054 -0.28900355
-0.009479328 -0.32406613 -0.2892728
-0.00943803 -0.3251879 -0.2886583
-0.009297691 -0.3272622 -0.28892457
-0.009137949 -0.32952803 -0.28935668
-0.009096368 -0.33065748 -0.28873795
-0.008935541 -0.33294198 -0.28916863
-0.008794568 -0.3350391 -0.2894179
-0.008752702 -0.33617628 -0.2887949
-0.008591154 -0.33848086 -0.2892142
-0.008449502 -0.34059626 -0.28945354
-0.00828793 -0.3429114 -0.28985903
-0.0082456255 -0.34406048 -0.28922954
-0.008083307 -0.34639096 -0.28963062
-0.007981089 -0.34813383 -0.28951013
-0.007938553 -0.3492892 -0.2888772
-0.007815364 -0.3512439 -0.28892952
-0.0077325054 -0.3528016 -0.28863558
-0.0076898136 -0.3539612 -0.28800032
-0.0075266217 -0.35632297 -0.2883781
-0.007483325 -0.35749128 -0.2877443
-0.0074606845 -0.35845262 -0.2869381
-0.007417866 -0.35961568 -0.28630096
-0.0074358354 -0.36016697 -0.28515995
-0.007494535 -0.3603048 -0.2836862
-0.0074519203 -0.3614623 -0.2830521
-0.0075514303 -0.36118016 -0.28125262
-0.0076920907 -0.36047414 -0.27912524
-0.0076498888 -0.36162046 -0.27849728
-0.007791467 -0.36089325 -0.2763784
-0.007933501 -0.36015356 -0.27426654
-0.0080555165 -0.35961094 -0.27232656
-0.008013986 -0.36073902 -0.27170858
-0.008136783 -0.3601779 -0.26977652
-0.008259634 -0.35960928 -0.26785347
-0.008218516 -0.36072615 -0.26724163
-0.008342151 -0.360139 -0.26532647
-0.008466004 -0.35954267 -0.263419
-0.008425299 -0.36064833 -0.2628133
-0.008549954 -0.36003327 -0.26091355
-0.008654322 -0.35962287 -0.25918138
-0.008738322 -0.3594192 -0.2576156
-0.00869816 -0.36051014 -0.25701797
-0.008803403 -0.3600759 -0.25529882
-0.008909011 -0.35963184 -0.25358504
-0.008869209 -0.36071298 -0.25299278
-0.008975352 -0.36025423 -0.2512871
-0.009060984 -0.3600064 -0.24974543
-0.009167553 -0.3595316 -0.24805216
-0.009128266 -0.36059874 -0.24746756
-0.009214963 -0.36032635 -0.24593581
-0.009322379 -0.35982808 -0.2442558
-0.009283426 -0.36088613 -0.24367619
-0.009370322 -0.36059844 -0.24216083
-0.009458136 -0.3602958 -0.24064556
-0.009419492 -0.36134547 -0.24007054
-0.009507428 -0.36103386 -0.2385647
-0.009637544 -0.36026278 -0.23675667
-0.009705249 -0.3601586 -0.23541334
-0.009667097 -0.3611949 -0.23484562
-0.009776705 -0.36063048 -0.23320727
-0.009866247 -0.36027795 -0.23172168
-0.00982843 -0.36130518 -0.23115896
-0.0099398 -0.36070734 -0.22952722
-0.010029481 -0.3603403 -0.22805828
-0.009991998 -0.3613584 -0.22750053
-0.010102303 -0.36075798 -0.2258956
-0.010170937 -0.36060902 -0.22459269
-0.010259149 -0.36024067 -0.22315766
-0.010222122 -0.36124644 -0.22260669
-0.010269078 -0.36132583 -0.22146952
-0.010337433 -0.3611656 -0.22018799
-0.010300633 -0.36216518 -0.2196404
-0.010307493 -0.36268067 -0.21879151
-0.0103734555 -0.362538 -0.21753857
-0.01033683 -0.36353284 -0.21699357
-0.010426931 -0.36311522 -0.21558386
-0.010552724 -0.36229438 -0.21393815
-0.010552491 -0.36287668 -0.21315417
-0.010516254 -0.36386096 -0.21261495
-0.010583823 -0.3636804 -0.21137813
-0.0107414285 -0.36248395 -0.20954381
-0.010705545 -0.36345863 -0.20900986
-0.010753486 -0.36348793 -0.20791897
-0.012204595 -0.13687924 -0.51905704
-0.012151552 -0.13832001 -0.51826775
-0.013908426 -0.13240598 -0.48551384
-0.01477995 -0.12997401 -0.46855894
-0.015183026 -0.12940751 -0.45993087
-0.015135815 -0.13068987 -0.45922837
-0.015522002 -0.13013813 -0.45097446
-0.015958153 -0.12933671 -0.44190386
-0.01591261 -0.13057378 -0.44122615
-0.016278133 -0.13002004 -0.43345833
-0.016791323 -0.12878297 -0.42319983
-0.016747534 -0.12997243 -0.4225482
-0.017131733 -0.12924455 -0.41458893
-0.017533539 -0.12840217 -0.4063792
-0.017866272 -0.12783872 -0.39939186
-0.017824726 -0.12896718 -0.39877367
-0.01822664 -0.12803708 -0.39068502
-0.018559784 -0.12739332 -0.3838012
-0.0185197 -0.12848212 -0.38320473
-0.018856524 -0.12777594 -0.37632272
-0.019150933 -0.12724349 -0.3701879
-0.019112112 -0.12829795 -0.36961022
-0.019422261 -0.12764902 -0.36327145
-0.019691475 -0.12717405 -0.3576449
-0.019989397 -0.12653257 -0.35158154
-0.019952329 -0.12753944 -0.35102996
-0.020222737 -0.12699728 -0.34547007
-0.020523049 -0.12627944 -0.33945844
-0.020487111 -0.12725559 -0.33892366
-0.020731736 -0.12678574 -0.33386493
-0.020977462 -0.12628862 -0.3288188
-0.020942505 -0.12723812 -0.32829863
-0.021159533 -0.12685998 -0.32375604
-0.02136356 -0.12653166 -0.31944725
-0.021553656 -0.12625976 -0.3153849
-0.02151994 -0.12717554 -0.3148832
-0.021695724 -0.12695585 -0.3110819
-0.02187184 -0.12671863 -0.30729747
-0.021838848 -0.12761478 -0.30680653
-0.022016373 -0.12734635 -0.30303323
-0.02216466 -0.12722512 -0.29973626
-0.022132339 -0.12810302 -0.29925534
-0.022280702 -0.12796132 -0.2959854
-0.02238605 -0.12805067 -0.29339594
-0.022521116 -0.1279601 -0.29036495
-0.022489622 -0.12881552 -0.28989634
-0.022459343 -0.12966391 -0.28940925
-0.022443302 -0.13042927 -0.2887061
-0.022411838 -0.13128391 -0.2882379
-0.022350512 -0.1323147 -0.28821996
-0.022304289 -0.13325797 -0.287972
-0.02227275 -0.13411467 -0.28750268
-0.022208745 -0.13516632 -0.28751796
-0.022176387 -0.13602911 -0.2870592
-0.022128891 -0.1369839 -0.28682476
-0.02209727 -0.13784285 -0.2863542
-0.02203464 -0.13889237 -0.28634033
-0.021987068 -0.13985097 -0.28610238
-0.021955367 -0.14071204 -0.28563067
-0.02189247 -0.1417681 -0.2856138
-0.021829521 -0.14282665 -0.2855946
-0.021797717 -0.14369051 -0.28512135
-0.021703562 -0.14495061 -0.2855481
-0.021624714 -0.14611717 -0.28574854
-0.02156127 -0.14718801 -0.28572366
-0.021529233 -0.1480582 -0.28524697
-0.021450154 -0.14923373 -0.28544018
-0.021355087 -0.1505168 -0.2858559
-0.021322869 -0.1513919 -0.2853765
-0.02125896 -0.15247591 -0.2853439
-0.021179248 -0.15366675 -0.28553036
-0.021146903 -0.15454535 -0.28504905
-0.021066958 -0.15574251 -0.28523207
-0.020970969 -0.15705073 -0.28563377
-0.020890793 -0.1582563 -0.28581038
-0.02085819 -0.15914191 -0.28532523
-0.020777578 -0.16035515 -0.28550118
-0.020696912 -0.1615719 -0.2856734
-0.020664154 -0.16246173 -0.28518596
-0.020599203 -0.16357441 -0.2851374
-0.02051818 -0.16480094 -0.2853042
-0.020485293 -0.16569427 -0.2848148
-0.020404045 -0.1669271 -0.28497812
-0.020322636 -0.16816413 -0.2851391
-0.020241078 -0.16940537 -0.28529778
-0.020207956 -0.17030498 -0.28480497
-0.02012617 -0.17155252 -0.28496018
-0.020044113 -0.17280506 -0.2851146
-0.020010838 -0.17370889 -0.28461945
-0.019928655 -0.17496696 -0.28476897
-0.019846318 -0.17622925 -0.2849162
-0.01981289 -0.17713729 -0.28441876
-0.019730315 -0.1784059 -0.2845626
-0.019647695 -0.17967792 -0.2847027
-0.019564813 -0.18095493 -0.2848419
-0.019531151 -0.18186927 -0.284341
-0.019448034 -0.18315262 -0.28447682
-0.019364761 -0.18444017 -0.2846103
-0.019330945 -0.1853587 -0.2841071
-0.019247442 -0.18665254 -0.28423712
-0.01918027 -0.1878256 -0.28415546
-0.019096483 -0.18912716 -0.28428125
-0.01906246 -0.1900513 -0.28377497
-0.018978447 -0.19135913 -0.28389728
-0.018894276 -0.19267118 -0.28401726
-0.018860096 -0.19359954 -0.2835087
-0.018775696 -0.19491789 -0.28362525
-0.018691136 -0.19624044 -0.28373948
-0.018656803 -0.197173 -0.2832286
-0.018572018 -0.19850184 -0.28333938
-0.018487072 -0.19983491 -0.28344786
-0.018401979 -0.20117214 -0.283554
-0.018367413 -0.202111 -0.28303966
-0.018298892 -0.20332055 -0.282938
-0.01821344 -0.2046676 -0.28303877
-0.018178746 -0.20560996 -0.2825225
-0.018076172 -0.2070994 -0.28282297
-0.017990189 -0.20845857 -0.28291896
-0.017955314 -0.20940585 -0.2824
-0.017886175 -0.21063226 -0.28228918
-0.017782956 -0.21213917 -0.28258002
-0.017696552 -0.21351212 -0.28266653
-0.017661445 -0.21446571 -0.28214413
-0.017557623 -0.21598686 -0.28242907
-0.017453594 -0.21751367 -0.28271094
-0.01741828 -0.21847287 -0.28218547
-0.017296812 -0.22015098 -0.28266194
-0.017192375 -0.22169138 -0.28293422
-0.01715683 -0.22265688 -0.28240532
-0.017069148 -0.22406179 -0.28247654
-0.016964087 -0.2256166 -0.28274307
-0.01685882 -0.22717705 -0.28300655
-0.016822992 -0.22815022 -0.28247342
-0.01671741 -0.22971909 -0.2827323
-0.016611628 -0.23129351 -0.28298807
-0.016575594 -0.2322723 -0.28245187
-0.016452124 -0.23400496 -0.2828983
-0.01634567 -0.23559524 -0.2831475
-0.016309403 -0.23658033 -0.28260785
-0.016202772 -0.23817784 -0.2828509
-0.016078325 -0.23993474 -0.28328615
-0.015953613 -0.24169864 -0.2837176
-0.015916986 -0.24269356 -0.28317255
-0.01579173 -0.24446937 -0.28359997
-0.015666528 -0.24624947 -0.28402016
-0.015629642 -0.24725139 -0.2834713
-0.015521509 -0.2488868 -0.28369617
-0.015395527 -0.2506851 -0.2841089
-0.015358409 -0.25169334 -0.28355658
-0.015231872 -0.25350368 -0.28396535
-0.015105241 -0.25531954 -0.2843685
-0.014996254 -0.2569809 -0.2845767
-0.014958775 -0.25799894 -0.28401902
-0.014831526 -0.25983164 -0.28441295
-0.01470402 -0.26167133 -0.28480303
-0.014666283 -0.26269636 -0.2842415
-0.014520527 -0.26471004 -0.28481323
-0.014410236 -0.26640382 -0.28500637
-0.014372241 -0.26743585 -0.284441
-0.014261638 -0.26913804 -0.2846295
-0.0141149005 -0.27117833 -0.28518665
-0.014003836 -0.2728931 -0.28536823
-0.013965478 -0.273935 -0.28479746
-0.013836061 -0.27582654 -0.28515917
-0.013706388 -0.2777251 -0.28551704
-0.0136677725 -0.27877396 -0.28494245
-0.013519775 -0.28085178 -0.2854763
-0.01338926 -0.28277016 -0.28582594
-0.013350361 -0.28382674 -0.28524712
-0.013219629 -0.285754 -0.28558922
-0.013070251 -0.28786308 -0.2861113
-0.012938985 -0.28980502 -0.2864453
-0.012899673 -0.29087284 -0.28586033
-0.01276782 -0.2928272 -0.28619057
-0.012636111 -0.2947847 -0.28651294
-0.012596541 -0.2958595 -0.28592414
-0.012464023 -0.29783157 -0.28624496
-0.012331459 -0.29980862 -0.28655985
-0.012291631 -0.30089045 -0.2859672
-0.012158682 -0.30287796 -0.2862763
-0.012025469 -0.30487254 -0.2865816
-0.011892002 -0.3068741 -0.28688306
-0.011851787 -0.30796644 -0.28628466
-0.011717662 -0.30998117 -0.28658292
-0.011583825 -0.31199753 -0.28687218
-0.011543352 -0.31309688 -0.28626993
-0.01139005 -0.3153125 -0.28673366
-0.011236435 -0.31753656 -0.28719282
-0.011101371 -0.31958154 -0.28747046
-0.01106046 -0.3206928 -0.2868617
-0.010925009 -0.3227483 -0.28713357
-0.0107893 -0.3248108 -0.28740162
-0.010748131 -0.32592905 -0.286789
-0.010593046 -0.32819304 -0.2872263
-0.010418925 -0.3306542 -0.28783092
-0.010377421 -0.33178157 -0.28721333
-0.010259391 -0.33368394 -0.28729358
-0.010103249 -0.33597666 -0.2877151
-0.009946802 -0.33827776 -0.288132
-0.009904886 -0.3394163 -0.28750828
-0.009767136 -0.3415342 -0.287746
-0.009629126 -0.34365907 -0.28797987
-0.009586952 -0.3448046 -0.28735232
-0.009487038 -0.34654418 -0.28723824
-0.009386659 -0.34829116 -0.2871246
-0.009344329 -0.34944093 -0.28649473
-0.009225397 -0.3513839 -0.2865388
-0.009028226 -0.35414222 -0.2872639
-0.008985168 -0.35530475 -0.2866331
-0.00894253 -0.35646293 -0.28599864
-0.008861043 -0.35802686 -0.28570104
-0.008818727 -0.3591825 -0.28506255
-0.008776037 -0.3603421 -0.2844273
-0.008830814 -0.36047724 -0.28295594
-0.008905095 -0.36040267 -0.28132385
-0.008862688 -0.36155456 -0.28069282
-0.008957102 -0.36125934 -0.2789007
-0.009091352 -0.36053607 -0.27678022
-0.009226051 -0.35980028 -0.27466673
-0.00918429 -0.36093464 -0.2740453
-0.009319329 -0.36018375 -0.27194515
-0.009416113 -0.35983402 -0.2701746
-0.009374764 -0.36095715 -0.2695593
-0.009511074 -0.3601744 -0.2674743
-0.009628049 -0.3595919 -0.26555938
-0.009587138 -0.36070314 -0.2649506
-0.0097049 -0.360102 -0.26304352
-0.009803209 -0.3597045 -0.26130453
-0.009921762 -0.35908175 -0.25940946
-0.009881443 -0.3601769 -0.2588095
-0.009980466 -0.3597565 -0.25708607
-0.010060305 -0.3595393 -0.255525
-0.010020321 -0.36062533 -0.25493005
-0.010100644 -0.36039528 -0.25337574
-0.0102010975 -0.35993955 -0.25166857
-0.01016145 -0.36101648 -0.2510786
-0.010262447 -0.36054605 -0.2493795
-0.010363286 -0.36007148 -0.24768983
-0.01046498 -0.35958174 -0.24600166
-0.010425872 -0.36064398 -0.24541974
-0.0104879895 -0.36058417 -0.24405134
-0.010590241 -0.36007455 -0.24237807
-0.010551444 -0.36112836 -0.24180077
-0.010633935 -0.3608303 -0.24029155
-0.010737288 -0.36029443 -0.2386296
-0.010698826 -0.36133915 -0.23805727
-0.010782691 -0.36101297 -0.23655555
-0.0108660525 -0.36068755 -0.23506457
-0.010970398 -0.36012113 -0.23342228
-0.010932424 -0.3611526 -0.23285723
-0.011037104 -0.3605739 -0.23122452
-0.011122238 -0.36021048 -0.22974563
-0.0110845985 -0.36123285 -0.22918555
-0.0111702625 -0.36085606 -0.22771302
-0.011274932 -0.36025834 -0.22610728
-0.011237627 -0.36127162 -0.22555219
-0.01132156 -0.36090207 -0.22411005
-0.011386106 -0.36074919 -0.22281596
-0.011450258 -0.36059687 -0.22153035
-0.011413357 -0.36159918 -0.22098126
-0.011475574 -0.3614631 -0.21971798
-0.01148038 -0.36198366 -0.21887223
-0.011443655 -0.3629812 -0.21832575
-0.011504966 -0.3628471 -0.21708094
-0.011573601 -0.3626245 -0.21578945
-0.011537128 -0.36361519 -0.21524672
-0.011676942 -0.3625607 -0.21346259
-0.01167198 -0.36318186 -0.21270359
-0.011719887 -0.36318642 -0.21157683
-0.011683774 -0.3641673 -0.21103947
-0.011843672 -0.36285925 -0.20914294
-0.011865507 -0.36315864 -0.20821056
-0.011829707 -0.36413106 -0.20767784
-0.013819015 -0.13760827 -0.51856786
-0.015471493 -0.13173878 -0.4857952
-0.015421771 -0.13308936 -0.4850553
-0.016241943 -0.13063422 -0.46811596
-0.01661992 -0.13005638 -0.4594955
-0.016981289 -0.12951523 -0.45123714
-0.016934868 -0.13077615 -0.45054638
-0.017344316 -0.12996265 -0.44148389
-0.017686432 -0.12941891 -0.43371183
-0.017641632 -0.13063577 -0.4330452
-0.018124115 -0.12938483 -0.422796
-0.018484073 -0.12866731 -0.41483235
-0.018441055 -0.1298358 -0.41419223
-0.01881851 -0.12898244 -0.40598986
-0.019130753 -0.12840971 -0.39900875
-0.01950773 -0.12749025 -0.39091563
-0.019466978 -0.1285972 -0.3903092
-0.019779801 -0.12794425 -0.38343155
-0.020095546 -0.12724707 -0.37654573
-0.02005613 -0.12831765 -0.37595925
-0.020332495 -0.12777704 -0.3698299
-0.020623226 -0.1271364 -0.36348763
-0.020585023 -0.12817411 -0.36291915
-0.020837706 -0.12769166 -0.3572976
-0.021117615 -0.12704204 -0.3512397
-0.021371039 -0.12650713 -0.34567678
-0.02133451 -0.12749933 -0.34513322
-0.021616835 -0.12677337 -0.33912703
-0.02184604 -0.12631011 -0.3340655
-0.021810593 -0.12727293 -0.33353803
-0.022041386 -0.12676907 -0.32849643
-0.022244636 -0.1263968 -0.32395136
-0.022210117 -0.1273344 -0.32343772
-0.022401543 -0.12700039 -0.31913278
-0.02257981 -0.12672314 -0.315074
-0.02274422 -0.12650831 -0.31127062
-0.022710867 -0.12741426 -0.31077433
-0.022875993 -0.12717207 -0.30699325
-0.023042144 -0.1269085 -0.30321786
-0.023009514 -0.12779482 -0.30273232
-0.023148358 -0.12766933 -0.2994382
-0.023287013 -0.12753178 -0.29616654
-0.023255002 -0.1284013 -0.2956902
-0.023353213 -0.12848741 -0.2931029
-0.023479631 -0.12839293 -0.29007456
-0.023449287 -0.12924136 -0.28958744
-0.023417795 -0.13009673 -0.28911886
-0.023400959 -0.1308617 -0.28841594
-0.023341214 -0.1318918 -0.2883983
-0.0233097 -0.13274783 -0.28792933
-0.023264235 -0.13369144 -0.28768116
-0.023201946 -0.13474236 -0.28769672
-0.023169627 -0.13560514 -0.28723797
-0.023138031 -0.13646336 -0.2867678
-0.023091346 -0.13741854 -0.28653315
-0.023030344 -0.13846736 -0.28651956
-0.02299867 -0.13932769 -0.28604826
-0.022951905 -0.14028667 -0.28581005
-0.022890635 -0.14134203 -0.28579348
-0.022858882 -0.14220451 -0.285321
-0.022797508 -0.14326376 -0.28530133
-0.022706592 -0.14452247 -0.28572863
-0.022630183 -0.14568798 -0.28592953
-0.022598198 -0.14655675 -0.2854536
-0.02253633 -0.14762832 -0.28542823
-0.02245968 -0.14880282 -0.28562188
-0.022427568 -0.1496751 -0.28514403
-0.022335637 -0.1509596 -0.2855588
-0.022273358 -0.15204291 -0.28552648
-0.02224109 -0.1529194 -0.2850463
-0.02216373 -0.15411133 -0.2852321
-0.02208622 -0.15530744 -0.28541556
-0.021993477 -0.15661427 -0.28581783
-0.02196095 -0.15749778 -0.28533384
-0.021883124 -0.15870441 -0.28550974
-0.02180495 -0.15991662 -0.28568614
-0.02177227 -0.16080433 -0.28519982
-0.02169396 -0.16202216 -0.28537133
-0.021630634 -0.16313414 -0.28532305
-0.021597823 -0.16402535 -0.2848348
-0.021519156 -0.16525297 -0.2850009
-0.021440338 -0.16648476 -0.28516465
-0.021361366 -0.16772075 -0.2853261
-0.021328323 -0.16861828 -0.2848344
-0.02124912 -0.16986057 -0.28499237
-0.021169761 -0.17110707 -0.28514805
-0.021136563 -0.1720088 -0.28465405
-0.021056868 -0.17326239 -0.28480774
-0.020977119 -0.17451942 -0.2849577
-0.020943766 -0.17542537 -0.2844614
-0.020863783 -0.17668872 -0.28460795
-0.020783646 -0.17795628 -0.2847522
-0.020703452 -0.17922726 -0.28489274
-0.020669868 -0.1801395 -0.28439298
-0.020589342 -0.18141758 -0.28453147
-0.020508656 -0.18269989 -0.28466773
-0.020474916 -0.18361634 -0.28416568
-0.020394 -0.18490495 -0.28429845
-0.020312931 -0.18619774 -0.28442892
-0.020279039 -0.1871184 -0.28392455
-0.020213438 -0.18829216 -0.28384244
-0.020132007 -0.18959476 -0.2839675
-0.020050429 -0.19090156 -0.28409022
-0.020016328 -0.19182782 -0.2835828
-0.01993451 -0.19314094 -0.28370208
-0.01985254 -0.19445825 -0.28381908
-0.019818284 -0.1953887 -0.28330937
-0.019736081 -0.19671232 -0.28342286
-0.019653728 -0.19804013 -0.2835341
-0.019619318 -0.19897479 -0.28302208
-0.01953673 -0.20030892 -0.2831298
-0.01945399 -0.2016472 -0.28323522
-0.019387098 -0.20285606 -0.2831339
-0.01935248 -0.20379634 -0.2826188
-0.01926938 -0.20514444 -0.2827188
-0.019170046 -0.2066325 -0.28301984
-0.01913525 -0.20757765 -0.28250208
-0.019051626 -0.20893791 -0.28259736
-0.018984111 -0.21016362 -0.2824868
-0.018949185 -0.21111229 -0.2819671
-0.018849107 -0.21262063 -0.282257
-0.018765053 -0.21399465 -0.2823428
-0.018664474 -0.2155144 -0.2826283
-0.018629264 -0.21647081 -0.28210437
-0.018528374 -0.21799903 -0.2823853
-0.018410958 -0.21967542 -0.28286248
-0.018375516 -0.22063811 -0.2823351
-0.01827421 -0.22217993 -0.28260645
-0.01818897 -0.2235838 -0.2826781
-0.018153347 -0.2245514 -0.28214803
-0.018051427 -0.22610764 -0.28241363
-0.017949298 -0.22766948 -0.28267613
-0.017846962 -0.22923695 -0.28293562
-0.01781103 -0.23021296 -0.28240094
-0.017708385 -0.23178878 -0.28265575
-0.017588967 -0.2335197 -0.28310293
-0.017552804 -0.234502 -0.28256482
-0.017449493 -0.2360937 -0.28281307
-0.017346108 -0.23768982 -0.2830567
-0.017225713 -0.23944499 -0.28349268
-0.017189214 -0.24043639 -0.28294957
-0.017068427 -0.24220207 -0.28337982
-0.016947234 -0.24397616 -0.28380796
-0.016910478 -0.24497457 -0.283261
-0.016789194 -0.24675645 -0.28368002
-0.016684307 -0.24839047 -0.28390548
-0.016647318 -0.24939518 -0.2833551
-0.016525263 -0.25119528 -0.2837666
-0.016402788 -0.25300387 -0.2841761
-0.016280215 -0.254818 -0.28457996
-0.01624284 -0.25583324 -0.2840238
-0.016136993 -0.25749603 -0.2842311
-0.016013796 -0.259327 -0.28462574
-0.015976187 -0.26034853 -0.2840661
-0.015852606 -0.26218998 -0.28445503
-0.015711712 -0.26420158 -0.28502762
-0.015673818 -0.26523083 -0.28446376
-0.015566671 -0.26692602 -0.284656
-0.015459321 -0.2686268 -0.28484508
-0.015317445 -0.27066505 -0.2854031
-0.015279191 -0.2717041 -0.28483388
-0.015171273 -0.2734203 -0.2850145
