ply
format ascii 1.0
element vertex 1304
property float x
property float y
property float z
end_header
-0.005295798 -0.2599843 -0.26627102
-0.005250375 -0.2610205 -0.26564458
-0.0051510683 -0.26293957 -0.26591033
-0.005062158 -0.26469004 -0.2659957
-0.005016463 -0.26573244 -0.2653655
-0.004905672 -0.2678449 -0.26579675
-0.004805308 -0.26978806 -0.26604804
-0.004759281 -0.27083802 -0.26541325
-0.0046585784 -0.27278963 -0.26565647
-0.0045682257 -0.27457228 -0.26572537
-0.0044778553 -0.27635676 -0.26578736
-0.004431436 -0.27741566 -0.26514718
-0.0043185465 -0.2795753 -0.26555276
-0.0042053 -0.2817431 -0.26595336
-0.0041585187 -0.28281027 -0.26530817
-0.004055894 -0.284805 -0.26552823
-0.003952867 -0.2868083 -0.26574576
-0.0039057839 -0.28788236 -0.2650964
-0.0038023037 -0.28989598 -0.26530764
-0.003687342 -0.29210293 -0.26568446
-0.0035607943 -0.2945055 -0.2662258
-0.0035131697 -0.29559192 -0.265569
-0.0033972666 -0.2978203 -0.265933
-0.003280907 -0.3000585 -0.26629347
-0.0032329205 -0.30115318 -0.26563165
-0.0031161113 -0.30340225 -0.26598325
-0.0029989395 -0.30565953 -0.26632982
-0.0029505913 -0.30676246 -0.26566303
-0.002832876 -0.30903217 -0.26600215
-0.002703311 -0.31150353 -0.26650202
-0.0025847438 -0.31379208 -0.26683223
-0.0025358219 -0.3149081 -0.2661575
-0.002405342 -0.31740096 -0.2666417
-0.0022742334 -0.31990695 -0.2671231
-0.0022248905 -0.32103258 -0.2664426
-0.0021049168 -0.3233538 -0.2667505
-0.0019729943 -0.3258796 -0.2672148
-0.0019232598 -0.32701412 -0.26652887
-0.001802245 -0.3293585 -0.2668254
-0.0016691929 -0.33190945 -0.26727706
-0.0015357175 -0.33447003 -0.2677229
-0.00148538 -0.33561832 -0.2670287
-0.0013630457 -0.33799282 -0.26730683
-0.0012404623 -0.34037367 -0.26757845
-0.0011897625 -0.34153023 -0.26687923
-0.0010548219 -0.34412515 -0.26730055
-0.0009558348 -0.3461081 -0.26723465
-0.0009048053 -0.3472722 -0.26653087
-0.0007808994 -0.3496837 -0.26678178
-0.00069337507 -0.351474 -0.26654878
-0.00058103795 -0.35369077 -0.26663277
-0.00052958936 -0.35486442 -0.2659232
-0.0004778006 -0.35604393 -0.26521796
-0.00040191953 -0.3576375 -0.26482037
-0.00035040855 -0.35881254 -0.26410994
-0.00032360613 -0.35956228 -0.26308718
-0.00032151275 -0.3598856 -0.26175684
-0.0002701815 -0.36105657 -0.2610489
-0.0002935379 -0.36093882 -0.25941116
-0.00035447543 -0.36017007 -0.2573174
-0.0004036264 -0.35960203 -0.25538298
-0.00035298738 -0.3607572 -0.25468457
-0.000428176 -0.3597345 -0.25245136
-0.0004914531 -0.35891482 -0.2503783
-0.00044138663 -0.36005694 -0.24968779
-0.0005053852 -0.35922033 -0.24762711
-0.0005446058 -0.35881087 -0.24587646
-0.00049502216 -0.35994196 -0.24519262
-0.00054765464 -0.35929593 -0.2432996
-0.0006006121 -0.3586416 -0.24141507
-0.00064131536 -0.35819805 -0.23968631
-0.00059242605 -0.3593133 -0.23901203
-0.0006338617 -0.35885358 -0.23729086
-0.0006759433 -0.3583803 -0.23557293
-0.0006274763 -0.35948592 -0.2349045
-0.00068288465 -0.35877636 -0.23305048
-0.0007386626 -0.3580578 -0.2312044
-0.0007821137 -0.35755238 -0.2295097
-0.0007343406 -0.3586422 -0.22885083
-0.00079141 -0.35789478 -0.22701965
-0.0008359718 -0.35736412 -0.22533967
-0.00078865036 -0.35844362 -0.22468702
-0.0008467648 -0.35767168 -0.22287357
-0.0008924539 -0.35711554 -0.22120813
-0.0008455846 -0.35818473 -0.22056173
-0.00090526824 -0.35737902 -0.21876022
-0.0009653304 -0.35656413 -0.21696648
-0.0010124178 -0.35597536 -0.2153238
-0.00096624525 -0.35702866 -0.214687
-0.001027364 -0.35618907 -0.2129108
-0.0010766075 -0.3555566 -0.2112718
-0.0010308903 -0.3565995 -0.21064126
-0.0010808728 -0.3559507 -0.2090101
-0.0011308129 -0.3553005 -0.20738968
-0.0010855218 -0.35633364 -0.20676504
-0.0011374936 -0.3556442 -0.20513913
-0.0011906779 -0.35493103 -0.20351115
-0.001219216 -0.3546527 -0.20214474
-0.0011745195 -0.35567233 -0.2015283
-0.0012162534 -0.35515726 -0.20004041
-0.0012466976 -0.35484084 -0.19867487
-0.001202356 -0.35585237 -0.19806331
-0.0012437244 -0.35533917 -0.19660102
-0.0012761536 -0.35498318 -0.1952359
-0.0012321658 -0.35598662 -0.19462922
-0.0013158324 -0.354715 -0.1927752
-0.0013938966 -0.3535405 -0.1909887
-0.0014241374 -0.35321677 -0.18967699
-0.00138085 -0.3542042 -0.18907997
-0.0013915332 -0.35422748 -0.18796659
-0.0014256568 -0.3538306 -0.18663548
-0.0013826516 -0.35481164 -0.18604235
-0.0014525513 -0.35377204 -0.18438588
-0.010642344 -0.13140258 -0.53609556
-0.0109713385 -0.12792863 -0.51561093
-0.011175062 -0.12599225 -0.50159293
-0.011113331 -0.12740044 -0.5007416
-0.011213461 -0.12673984 -0.49204466
-0.011275784 -0.12654552 -0.48528537
-0.011215742 -0.12791522 -0.48445728
-0.011310422 -0.12728018 -0.47629824
-0.011355514 -0.12727275 -0.47058094
-0.0114639625 -0.12642549 -0.46197963
-0.01140639 -0.12773882 -0.4611856
-0.011470419 -0.12744923 -0.45479962
-0.011556829 -0.12685014 -0.44747448
-0.011500764 -0.12812911 -0.44670123
-0.011573712 -0.12768655 -0.44012478
-0.011653548 -0.12713811 -0.43332535
-0.011598959 -0.12838338 -0.43257245
-0.011670119 -0.12793101 -0.42628556
-0.011764681 -0.12714869 -0.4190559
-0.0118387565 -0.12663002 -0.41280794
-0.011786368 -0.1278251 -0.4120854
-0.011878896 -0.12703466 -0.4051661
-0.01195095 -0.12651154 -0.3992039
-0.011900007 -0.12767367 -0.3985013
-0.011974035 -0.12710539 -0.39256734
-0.0120436605 -0.12658644 -0.38688976
-0.011994014 -0.12771897 -0.38620502
-0.01207116 -0.12707809 -0.38032332
-0.012144133 -0.12648411 -0.37468362
-0.0122182425 -0.12586306 -0.36906675
-0.012170526 -0.12695158 -0.36840865
-0.012234764 -0.12645398 -0.36328727
-0.012311989 -0.12576193 -0.35771284
-0.012265478 -0.12682293 -0.35707134
-0.012326715 -0.12634334 -0.35222185
-0.012394903 -0.12575485 -0.3471597
-0.012349509 -0.12679039 -0.34653363
-0.0124013005 -0.12642401 -0.34218842
-0.012460099 -0.1259482 -0.33762684
-0.012513827 -0.12553747 -0.33330956
-0.012469909 -0.1265393 -0.33270386
-0.012525005 -0.12609668 -0.32840946
-0.01257492 -0.12572199 -0.32435587
-0.012531937 -0.12670252 -0.32376307
-0.012589415 -0.12620558 -0.3195015
-0.0126353055 -0.12587173 -0.3157086
-0.0125932265 -0.12683164 -0.31512827
-0.012646717 -0.126375 -0.31112602
-0.012694712 -0.12599286 -0.30736396
-0.012749981 -0.12549567 -0.30338624
-0.012709228 -0.12642531 -0.3028242
-0.012752915 -0.12609088 -0.29931656
-0.012803815 -0.12564208 -0.29559693
-0.0127638765 -0.12655315 -0.2950461
-0.012809508 -0.12617403 -0.2915675
-0.012862595 -0.12567616 -0.28787282
-0.012823471 -0.12656866 -0.28733322
-0.012871097 -0.12614407 -0.28388184
-0.012919321 -0.1257044 -0.28044748
-0.012955124 -0.12544826 -0.2774615
-0.012917113 -0.12631534 -0.27693728
-0.012967098 -0.12583451 -0.27353352
-0.012977136 -0.12596105 -0.27146488
-0.012939728 -0.12681442 -0.27094895
-0.012949464 -0.12694098 -0.26891902
-0.012919052 -0.12768476 -0.26818928
-0.012881879 -0.12853274 -0.26767662
-0.012865179 -0.12906311 -0.26651862
-0.01280724 -0.13023326 -0.26666042
-0.012749809 -0.13139676 -0.2667783
-0.012712548 -0.13224676 -0.26626438
-0.012647435 -0.13353227 -0.2666069
-0.012575126 -0.13493219 -0.2671588
-0.012537599 -0.13578826 -0.26664123
-0.012457172 -0.137319 -0.2674187
-0.012397945 -0.13851827 -0.2675444
-0.012360148 -0.1393805 -0.2670231
-0.012293265 -0.14070272 -0.26736397
-0.012204229 -0.1423776 -0.26834705
-0.012129448 -0.14382914 -0.2688945
-0.01209117 -0.14470235 -0.26836658
-0.012023277 -0.14604728 -0.26869544
-0.011955154 -0.14739755 -0.2690207
-0.011916634 -0.14827627 -0.26848942
-0.011840725 -0.14975363 -0.2690206
-0.011779442 -0.15099849 -0.269126
-0.011740681 -0.15188271 -0.2685914
-0.011679132 -0.15313368 -0.26869294
-0.011609849 -0.15451051 -0.26900148
-0.011547907 -0.1557704 -0.26909754
-0.011508844 -0.15666153 -0.2685588
-0.011454329 -0.15780294 -0.2684413
-0.011399637 -0.15894802 -0.26832357
-0.0113604525 -0.15984188 -0.26778316
-0.011297847 -0.16111693 -0.26787
-0.011227355 -0.16252172 -0.2681595
-0.01118796 -0.16342041 -0.26761618
-0.011132695 -0.16457857 -0.26749054
-0.0110694 -0.16586901 -0.2675701
-0.011006036 -0.16716175 -0.2676442
-0.010966398 -0.16806595 -0.26709753
-0.010910647 -0.16923518 -0.26696518
-0.010846804 -0.1705385 -0.26703495
-0.010807015 -0.17144616 -0.2664862
-0.0107429 -0.17275566 -0.26655218
-0.0106786005 -0.17406934 -0.26661575
-0.0106141195 -0.17538717 -0.26667684
-0.010574059 -0.17630105 -0.26612434
-0.010501157 -0.17776044 -0.26638293
-0.010444373 -0.17895322 -0.26623645
-0.01040413 -0.17987123 -0.26568145
-0.010330624 -0.18134403 -0.26593408
-0.010265203 -0.18268327 -0.2659823
-0.010224749 -0.18360612 -0.26542437
-0.010150733 -0.18509093 -0.26566753
-0.0100764735 -0.18658133 -0.26590744
-0.010001973 -0.18807717 -0.26614392
-0.009961159 -0.18900822 -0.265581
-0.0098862965 -0.19051236 -0.26581258
-0.009802714 -0.19216487 -0.26623756
-0.009761628 -0.19310212 -0.26567093
-0.009686063 -0.19462183 -0.2658953
-0.009601754 -0.1962909 -0.26631042
-0.009560396 -0.19723435 -0.26574004
-0.009475566 -0.1989149 -0.26615047
-0.009399158 -0.20045424 -0.26636106
-0.009313749 -0.20214792 -0.2667637
-0.009271969 -0.20310101 -0.2661875
-0.009194924 -0.20465486 -0.26638943
-0.009108791 -0.2063651 -0.26678213
-0.009066739 -0.20732437 -0.26620215
-0.008980152 -0.20904492 -0.26658866
-0.008893338 -0.21077111 -0.2669694
-0.008850984 -0.21173726 -0.2663853
-0.008781467 -0.21316934 -0.266381
-0.00868494 -0.2150662 -0.26694363
-0.00859711 -0.21681559 -0.26731002
-0.008554337 -0.21779135 -0.26672012
-0.008474995 -0.21939702 -0.26689363
-0.008386453 -0.22116275 -0.26724985
-0.008343407 -0.2221447 -0.2666562
-0.0082726395 -0.22360572 -0.26663184
-0.008174269 -0.22554529 -0.26716512
-0.008130953 -0.22653341 -0.26656774
-0.008050447 -0.22816621 -0.26672164
-0.007960378 -0.22996631 -0.2670596
-0.007870012 -0.2317732 -0.26739332
-0.007826272 -0.23277098 -0.2667901
-0.0077262344 -0.23474866 -0.26729983
-0.0076445346 -0.23640877 -0.26743695
-0.007600494 -0.23741342 -0.26682955
-0.007509024 -0.23924604 -0.26714468
-0.0074173496 -0.24108382 -0.2674538
-0.0073730093 -0.2420953 -0.26684225
-0.007299783 -0.2436125 -0.2667835
-0.0072075115 -0.24546441 -0.2670813
-0.007124305 -0.2471589 -0.26719767
-0.007079604 -0.24817862 -0.26658118
-0.0069865123 -0.25004873 -0.26687092
-0.0069025746 -0.25175935 -0.2669804
-0.006857602 -0.25278527 -0.26636016
-0.0067832056 -0.25432965 -0.2662821
-0.0066988887 -0.25604996 -0.26638013
-0.0066537065 -0.25708064 -0.26575696
-0.0065689306 -0.25881094 -0.26585177
-0.0064839143 -0.26054668 -0.26594323
-0.006388703 -0.26246414 -0.26621002
-0.0063431277 -0.2635038 -0.26558146
-0.0062573776 -0.26525578 -0.26566595
-0.006151492 -0.26736632 -0.2660984
-0.006105615 -0.26841286 -0.2654657
-0.006009192 -0.27035788 -0.26571587
-0.0059125745 -0.2723079 -0.2659601
-0.0058663967 -0.27336133 -0.26532322
-0.0057792137 -0.27514547 -0.26539126
-0.0056919972 -0.27693143 -0.26545238
-0.00558402 -0.27908918 -0.2658592
-0.0055374196 -0.2801522 -0.26521647
-0.005428902 -0.28232226 -0.26561576
-0.00533037 -0.2843154 -0.26583683
-0.0052834377 -0.28538603 -0.26518956
-0.0051843603 -0.28739122 -0.26540598
-0.00508498 -0.28940326 -0.2656182
-0.005037746 -0.29048076 -0.26496676
-0.004927514 -0.29268995 -0.2653423
-0.004806478 -0.29509512 -0.26588213
-0.004695488 -0.2973216 -0.26624736
-0.0046476815 -0.29841214 -0.26558802
-0.0045360574 -0.30065262 -0.26594716
-0.00442416 -0.30289978 -0.26629996
-0.0043759914 -0.3039986 -0.26563564
-0.0042635505 -0.3062581 -0.2659809
-0.0041507487 -0.30852592 -0.26632124
-0.004026907 -0.31099507 -0.26682252
-0.0039781663 -0.31210697 -0.2661503
-0.0038643363 -0.31439775 -0.2664792
-0.003739571 -0.31688842 -0.2669648
-0.003690439 -0.31800923 -0.26628718
-0.003564849 -0.32051784 -0.26676702
-0.0034497862 -0.32283717 -0.26707613
-0.0034002622 -0.32396692 -0.26639313
-0.0032738447 -0.32649532 -0.2668559
-0.0031577486 -0.32883778 -0.26715362
-0.0030304177 -0.33138657 -0.26760665
-0.0029802925 -0.33253002 -0.26691535
-0.0028523286 -0.33509323 -0.26735967
-0.0027349112 -0.33746585 -0.26763898
-0.002684394 -0.33861825 -0.26694226
-0.0025665394 -0.34100133 -0.2672126
-0.0024373084 -0.3435941 -0.2676353
-0.0023864 -0.3447554 -0.26693317
-0.0022905453 -0.34673986 -0.26686642
-0.002171543 -0.34914953 -0.26711848
-0.0020864576 -0.35093886 -0.26688612
-0.002035158 -0.3521091 -0.26617858
-0.0019267572 -0.35432774 -0.2662615
-0.0018749917 -0.35550722 -0.26555628
-0.0018235408 -0.35668093 -0.26484665
-0.0017492247 -0.3582752 -0.26444864
-0.0017207884 -0.35902557 -0.26342547
-0.0016693375 -0.36019924 -0.26271588
-0.0016641066 -0.3605211 -0.26138642
-0.0016825575 -0.36040524 -0.2597475
-0.0017361514 -0.35963935 -0.25765195
-0.0016852728 -0.36079997 -0.25695023
-0.0017281272 -0.36022896 -0.25501755
-0.0017951312 -0.35920942 -0.25278232
-0.0017447951 -0.3603577 -0.2520881
-0.0018009718 -0.35953465 -0.250017
-0.0018576027 -0.3587009 -0.24795452
-0.0018078091 -0.3598368 -0.24726777
-0.0018415074 -0.35942474 -0.24551865
-0.0018875847 -0.35878122 -0.24362403
-0.0019339996 -0.35812938 -0.24173793
-0.0018848979 -0.3592495 -0.24106073
-0.0019200809 -0.3588033 -0.2393335
-0.0019557804 -0.35834575 -0.23761095
-0.0019071011 -0.35945624 -0.23693958
-0.0019436438 -0.35898033 -0.23522317
-0.001992501 -0.3582733 -0.23336759
-0.0019442749 -0.35937342 -0.23270246
-0.0019937493 -0.35865188 -0.23085813
-0.002031671 -0.3581438 -0.22916496
-0.002082189 -0.35739893 -0.22733219
-0.0020346572 -0.35848323 -0.22667664
-0.0020736868 -0.35794997 -0.22499819
-0.0021252565 -0.35718057 -0.22318313
-0.0020781762 -0.35825455 -0.2225338
-0.0021183318 -0.3576958 -0.22086991
-0.002171446 -0.35689265 -0.21906678
-0.0021248208 -0.35795626 -0.21842374
-0.0021785619 -0.35713843 -0.21663174
-0.0022201254 -0.35654703 -0.2149906
-0.0022746914 -0.3557099 -0.21321282
-0.0022287595 -0.3567577 -0.21257934
-0.0022724154 -0.3561226 -0.21094187
-0.0023165923 -0.35547602 -0.20930931
-0.0022710864 -0.3565141 -0.2086817
-0.002315461 -0.35586122 -0.20706284
-0.002361571 -0.35517398 -0.20543553
-0.0023164945 -0.35620224 -0.20481384
-0.0023639877 -0.3554864 -0.20318744
-0.0023882838 -0.35520607 -0.20182219
-0.0024248536 -0.35469297 -0.20033307
-0.0023803466 -0.35570824 -0.19971925
-0.0024064898 -0.3553898 -0.19835488
-0.0024427697 -0.35487854 -0.19689135
-0.0023986152 -0.3558858 -0.19628239
-0.002426676 -0.35552776 -0.19491845
-0.0025028146 -0.354259 -0.19306262
-0.002459104 -0.35525614 -0.19245978
-0.002530268 -0.35407838 -0.19067518
-0.002556341 -0.35375267 -0.18936461
-0.0025638689 -0.35377717 -0.18825044
-0.0025206993 -0.35476193 -0.18765505
-0.002550479 -0.35436302 -0.18632513
-0.0026138187 -0.35332596 -0.18466705
-0.0025710566 -0.35430145 -0.1840773
-0.007531344 -0.20306757 -0.83744204
-0.01250398 -0.12956828 -0.5319208
-0.0127372155 -0.12657897 -0.5132993
-0.0126742115 -0.1280162 -0.5124303
-0.012769992 -0.12705408 -0.5022965
-0.012848972 -0.12632945 -0.49329665
-0.012788099 -0.12771809 -0.49245712
-0.012830181 -0.12753439 -0.48576576
-0.012899538 -0.12692197 -0.47763836
-0.012840281 -0.12827373 -0.47682112
-0.012877994 -0.12812956 -0.47063276
-0.012956735 -0.12734067 -0.4622824
-0.01300608 -0.12699461 -0.45566007
-0.012949141 -0.1282935 -0.45487478
-0.013014465 -0.12768224 -0.44754282
-0.01306749 -0.12725206 -0.4409726
-0.013012086 -0.12851591 -0.44020846
-0.01307653 -0.12789048 -0.433185
-0.013128854 -0.12744571 -0.42689192
-0.013074927 -0.12867591 -0.42614818
-0.01314839 -0.12788065 -0.41891244
-0.013208653 -0.12728465 -0.412449
-0.013270979 -0.12664583 -0.40597433
-0.013219313 -0.12782444 -0.40526175
-0.013273934 -0.1272948 -0.3993046
-0.013339296 -0.12658314 -0.3929048
-0.013289016 -0.12773016 -0.39221132
-0.01334209 -0.12720323 -0.38653782
-0.013401389 -0.12656689 -0.38064477
-0.013352405 -0.12768432 -0.37996918
-0.013403792 -0.12716416 -0.37456965
-0.013466254 -0.12645508 -0.368726
-0.013515027 -0.12596186 -0.36359626
-0.013467884 -0.1270373 -0.36294606
-0.013523475 -0.12642089 -0.35760754
-0.013574968 -0.12586454 -0.352526
-0.013529 -0.12691316 -0.35189202
-0.013577043 -0.12640326 -0.3470646
-0.013615694 -0.12604268 -0.34271598
-0.013570752 -0.12706791 -0.34209615
-0.013616081 -0.12658702 -0.33753937
-0.013657159 -0.12617098 -0.33322513
-0.013699165 -0.12573355 -0.3289258
-0.0136557 -0.12672508 -0.3283263
-0.013693723 -0.126346 -0.32427692
-0.013732645 -0.12594634 -0.32024005
-0.013690085 -0.12691724 -0.31965306
-0.013730365 -0.12648663 -0.31563494
-0.013771578 -0.12603487 -0.31162798
-0.013729922 -0.12698515 -0.31105348
-0.013772429 -0.12650354 -0.3070679
-0.013810261 -0.12609637 -0.30331922
-0.013843232 -0.12576738 -0.29981014
-0.013802842 -0.12668878 -0.29925308
-0.013842719 -0.12623475 -0.29553446
-0.0138776805 -0.12586041 -0.29205287
-0.013838103 -0.12676322 -0.29150704
-0.013880113 -0.12626086 -0.2878151
-0.013917005 -0.12584211 -0.2843631
-0.013948847 -0.12550627 -0.28114372
-0.013910446 -0.12638229 -0.2806141
-0.013949135 -0.1259218 -0.27719358
-0.013982764 -0.12554497 -0.2740015
-0.013945115 -0.12640381 -0.27348226
-0.013961409 -0.12632306 -0.2709816
-0.01397189 -0.12634082 -0.26872015
-0.013934747 -0.1271881 -0.2682079
-0.013909723 -0.12782334 -0.2672596
-0.013890902 -0.12834924 -0.26609546
-0.013835797 -0.12951098 -0.26622826
-0.013798716 -0.13035688 -0.26571682
-0.013755481 -0.1313111 -0.26542094
-0.01369373 -0.13259196 -0.26576632
-0.013656502 -0.13344122 -0.26525286
-0.013594575 -0.134727 -0.26558715
-0.013519355 -0.1362493 -0.26636356
-0.01348183 -0.13710535 -0.265846
-0.013425056 -0.13830298 -0.26597613
-0.013355324 -0.13973178 -0.2665309
-0.013285007 -0.14117254 -0.26709107
-0.013247089 -0.14203753 -0.26656812
-0.013176521 -0.143485 -0.26711532
-0.013112115 -0.1448239 -0.267448
-0.013073927 -0.14569505 -0.2669213
-0.013015754 -0.14692411 -0.267037
-0.012944174 -0.1483944 -0.2675725
-0.012905744 -0.14927106 -0.26704246
-0.012840395 -0.15063158 -0.2673611
-0.012781515 -0.15187685 -0.26746622
-0.012722456 -0.15312621 -0.26756877
-0.012683724 -0.15400976 -0.2670346
-0.012624444 -0.15526439 -0.2671318
-0.012564933 -0.15652406 -0.26722807
-0.01252602 -0.15741174 -0.2666914
-0.012473176 -0.15855186 -0.26657468
-0.012413246 -0.15982114 -0.26666504
-0.012374181 -0.16071227 -0.26612628
-0.012307048 -0.16211371 -0.26641783
-0.012253589 -0.16326742 -0.26629707
-0.012193021 -0.1645512 -0.26637873
-0.012153685 -0.16544853 -0.2658362
-0.012099994 -0.16660798 -0.26570785
-0.012039003 -0.16790143 -0.26578367
-0.011999516 -0.1688022 -0.2652391
-0.011938305 -0.17010088 -0.26530966
-0.01187686 -0.17140466 -0.26537922
-0.011837192 -0.17230956 -0.26483214
-0.011775528 -0.17361856 -0.26489648
-0.011706324 -0.17506704 -0.26516166
-0.0116442125 -0.17638604 -0.2652222
-0.011604243 -0.17729783 -0.26467094
-0.011541858 -0.17862304 -0.26472768
-0.011479293 -0.17995237 -0.26478195
-0.011439142 -0.18086831 -0.2642282
-0.011368761 -0.18234336 -0.2644796
-0.011298257 -0.18382174 -0.26472458
-0.011257864 -0.18474317 -0.2641675
-0.011186883 -0.18623197 -0.26441053
-0.011115776 -0.18772407 -0.2646472
-0.01104431 -0.1892239 -0.2648836
-0.011003556 -0.1901536 -0.26432154
-0.010931787 -0.19166055 -0.2645514
-0.010852053 -0.19331694 -0.26497403
-0.010811028 -0.19425279 -0.2644082
-0.010738624 -0.19577427 -0.26462945
-0.010665974 -0.19730133 -0.26484746
-0.010624708 -0.1982427 -0.26427832
-0.010543763 -0.1999264 -0.2646868
-0.010470414 -0.20146917 -0.2648977
-0.010396886 -0.2030162 -0.26510376
-0.010355227 -0.20396653 -0.2645292
-0.010281338 -0.20552184 -0.2647302
-0.01019912 -0.20723456 -0.2651214
-0.01015719 -0.20819108 -0.2645431
-0.010082665 -0.2097609 -0.26473546
-0.009999801 -0.21148868 -0.26511484
-0.009957599 -0.21245138 -0.2645328
-0.009882278 -0.21403873 -0.26472026
-0.009798694 -0.21578293 -0.26508957
-0.009714812 -0.21753398 -0.26545468
-0.009672188 -0.2185063 -0.26486683
-0.009596041 -0.22011279 -0.26503992
-0.009511442 -0.2218802 -0.2653949
-0.009468547 -0.22285871 -0.26480332
-0.009383506 -0.22463626 -0.26515192
-0.009298071 -0.2264224 -0.26549837
-0.009220746 -0.22805575 -0.26565522
-0.00917743 -0.22904387 -0.2650578
-0.009091372 -0.23084465 -0.26539212
-0.009013613 -0.23248865 -0.26553586
-0.008970026 -0.23348294 -0.26493475
-0.008883252 -0.23530006 -0.26525897
-0.008796177 -0.23712406 -0.26557904
-0.00875229 -0.23812522 -0.26497376
-0.0086735105 -0.2397925 -0.2651034
-0.008594294 -0.24146903 -0.26523384
-0.008506322 -0.24331382 -0.26553825
-0.008462043 -0.24432392 -0.26492754
-0.008382388 -0.24601114 -0.2650452
-0.008302393 -0.24770579 -0.2651616
-0.008257873 -0.24872138 -0.26454762
-0.008177517 -0.25042427 -0.26465902
-0.0081059085 -0.25196013 -0.26458615
-0.008061177 -0.25298053 -0.26396924
-0.00798025 -0.25469646 -0.26407272
-0.007899079 -0.25641793 -0.2641729
-0.007817668 -0.25814486 -0.26426974
-0.0077725765 -0.25917348 -0.26364785
-0.0076907068 -0.26091054 -0.26374158
-0.007608591 -0.2626532 -0.2638321
-0.007563258 -0.26368737 -0.26320684
-0.0074625635 -0.2657898 -0.26364088
-0.0073704952 -0.26772696 -0.26389894
-0.0073248306 -0.26876867 -0.26326916
-0.007241759 -0.27053347 -0.26334316
-0.0071491715 -0.2724832 -0.2635874
-0.0070560793 -0.27444372 -0.26383132
-0.007009992 -0.27549505 -0.26319566
-0.0068977047 -0.27782902 -0.26377815
-0.006813301 -0.2796239 -0.26383692
-0.006766881 -0.28068283 -0.26319674
-0.006663191 -0.28285325 -0.26359293
-0.0065685334 -0.2848495 -0.2638151
-0.006521783 -0.28591597 -0.26317033
-0.006417121 -0.28810823 -0.26355627
-0.0063215885 -0.29012412 -0.2637692
-0.0062163295 -0.29233032 -0.26414388
-0.0061690668 -0.29340848 -0.26349205
-0.0060630753 -0.29563075 -0.26386252
-0.005956814 -0.29785946 -0.2642264
-0.005909189 -0.29894587 -0.2635696
-0.0057926117 -0.30137768 -0.26409334
-0.0056951214 -0.30343828 -0.2642791
-0.005647135 -0.30453295 -0.26361728
-0.0055295657 -0.30698738 -0.26412728
-0.00541148 -0.30945328 -0.26463306
-0.0053030853 -0.311731 -0.26496464
-0.0052544945 -0.31283945 -0.26429448
-0.0051353876 -0.3153287 -0.2647861
-0.005026057 -0.31762773 -0.2651048
-0.004977075 -0.3187451 -0.26442927
-0.004856942 -0.3212577 -0.26490676
-0.004736388 -0.32377994 -0.26537848
-0.0046869842 -0.32490695 -0.2646971
-0.004576052 -0.32724226 -0.26499656
-0.0044545694 -0.32978594 -0.2654526
-0.004332662 -0.33233938 -0.26590285
-0.0042826557 -0.33348012 -0.2652132
-0.004160022 -0.33604977 -0.2656562
-0.00403697 -0.338629 -0.2660933
-0.003986542 -0.33977938 -0.26539785
-0.0038631759 -0.34236673 -0.26582134
-0.0037703717 -0.344353 -0.26576635
-0.0037196123 -0.34551093 -0.26506627
-0.0036159826 -0.3477119 -0.26516417
-0.003522755 -0.3497085 -0.26509723
-0.0034188246 -0.35191715 -0.2651831
-0.0033676457 -0.35308465 -0.26447725
-0.0032954903 -0.3546667 -0.2640811
-0.0031909489 -0.3568895 -0.2641572
-0.0031395585 -0.3580618 -0.26344845
-0.0031097163 -0.35880768 -0.26242667
-0.0030903758 -0.35934532 -0.26125664
-0.0030391354 -0.36051422 -0.26054993
-0.003041952 -0.360612 -0.25907072
-0.0030777636 -0.36005488 -0.25713107
-0.0031033023 -0.35970002 -0.25535
-0.003052664 -0.3608552 -0.2546516
-0.0030899248 -0.3602658 -0.25272423
-0.003149484 -0.35923225 -0.2505001
-0.0030993877 -0.36037505 -0.2498092
-0.0031379885 -0.35975528 -0.2478983
-0.0031880047 -0.35890722 -0.24584447
-0.0031384216 -0.3600383 -0.24516062
-0.0031781835 -0.35939187 -0.24326782
-0.0032183651 -0.35873568 -0.24138248
-0.0032477386 -0.3582933 -0.23965491
-0.0031988493 -0.35940856 -0.23898065
-0.003217826 -0.35917148 -0.23740783
-0.0032598127 -0.3584747 -0.2355418
-0.0032113462 -0.35958034 -0.23487337
-0.0032538925 -0.3588703 -0.2330195
-0.0032968228 -0.35815123 -0.23117356
-0.003328898 -0.3576475 -0.22948036
-0.0032811244 -0.35873732 -0.22882147
-0.0033254407 -0.35798725 -0.22698906
-0.0033586044 -0.3574587 -0.2253108
-0.003311283 -0.3585382 -0.22465816
-0.003345223 -0.35799235 -0.22298683
-0.003391082 -0.35720682 -0.22117801
-0.0033442131 -0.35827598 -0.22053161
-0.003390848 -0.35747293 -0.21873218
-0.0034383503 -0.3566511 -0.2169346
-0.0034742155 -0.35606116 -0.21529162
-0.0034280438 -0.35711443 -0.21465483
-0.0034647875 -0.35650513 -0.21301764
-0.0035024486 -0.3558762 -0.21138035
-0.003456702 -0.3569198 -0.21074942
-0.0035064938 -0.35604566 -0.20898458
-0.0035459658 -0.3553774 -0.20735395
-0.0035006765 -0.35641053 -0.20672934
-0.0035412763 -0.35571787 -0.20510197
-0.0035823765 -0.35501397 -0.2034798
-0.0036141374 -0.3544967 -0.20197645
-0.0035694712 -0.35551563 -0.20136042
-0.0035782484 -0.35545924 -0.20013404
-0.0036109583 -0.35492045 -0.19864258
-0.0035666171 -0.35593197 -0.19803104
-0.0035982782 -0.35541272 -0.19656573
-0.0036318174 -0.35485467 -0.19508888
-0.0035878562 -0.35585752 -0.19448258
-0.0036486278 -0.35474893 -0.19271907
-0.0037208695 -0.35340768 -0.19084232
-0.0037356832 -0.3532234 -0.18960711
-0.0036924055 -0.35421067 -0.18901023
-0.0036980647 -0.35421008 -0.18788452
-0.0037249431 -0.3537804 -0.18653654
-0.0036819542 -0.35476103 -0.18594365
-0.0037472867 -0.35355306 -0.18419942
-0.010834169 -0.1922189 -0.798133
-0.010736873 -0.19443838 -0.7967912
-0.014225813 -0.1300513 -0.5301612
-0.014371523 -0.12761262 -0.5138421
-0.0144427465 -0.12654735 -0.5032418
-0.01438081 -0.12796023 -0.5023876
-0.014424773 -0.12739064 -0.49402246
-0.014446787 -0.12722531 -0.4873529
-0.014386485 -0.1286009 -0.48652124
-0.014435686 -0.12791519 -0.47815907
-0.014455054 -0.12778473 -0.4719797
-0.014508524 -0.12700488 -0.4636094
-0.014450745 -0.12832291 -0.46281254
-0.014484541 -0.1279052 -0.45596597
-0.014527679 -0.12730433 -0.44862688
-0.014471465 -0.12858668 -0.4478516
-0.014509096 -0.12808153 -0.44105625
-0.0145524405 -0.12746179 -0.4340139
-0.014497761 -0.12870914 -0.4332598
-0.014535738 -0.12818344 -0.42673093
-0.014586668 -0.12740424 -0.4195118
-0.014623737 -0.12688519 -0.413262
-0.014571287 -0.12808166 -0.41253862
-0.014618261 -0.12736455 -0.40584803
-0.014654842 -0.12684241 -0.39988562
-0.014603809 -0.12800659 -0.39918178
-0.014646439 -0.1273606 -0.39300996
-0.014682142 -0.12684388 -0.38733822
-0.014632434 -0.12797782 -0.38665265
-0.014678584 -0.12725194 -0.38052136
-0.014717633 -0.12665929 -0.37488714
-0.014757961 -0.12603751 -0.3692698
-0.014710214 -0.12712671 -0.36861128
-0.014743934 -0.12662748 -0.36348647
-0.014787347 -0.12593529 -0.35791323
-0.014740805 -0.12699696 -0.35727134
-0.014772992 -0.12651823 -0.35242513
-0.014806223 -0.12601554 -0.34759605
-0.014760769 -0.12705247 -0.34696913
-0.014786764 -0.12668666 -0.34262377
-0.014813688 -0.12629957 -0.33829364
-0.014846096 -0.12580153 -0.3337455
-0.014802117 -0.12680475 -0.33313897
-0.01483148 -0.12636203 -0.32884267
-0.0148571925 -0.12598836 -0.32478988
-0.014814149 -0.12697026 -0.32419625
-0.014845888 -0.12647325 -0.31993285
-0.014869185 -0.12614049 -0.3161407
-0.014827047 -0.12710176 -0.31555954
-0.014861139 -0.12655115 -0.31132865
-0.014886633 -0.12616833 -0.30756512
-0.014912944 -0.12576681 -0.3038146
-0.014872132 -0.12669782 -0.3032517
-0.014899675 -0.12626807 -0.29952008
-0.014923214 -0.1259157 -0.29602316
-0.014883216 -0.12682816 -0.29547152
-0.014907931 -0.1264489 -0.29199064
-0.01493344 -0.12605157 -0.28852022
-0.014894226 -0.12694614 -0.28797936
-0.014925893 -0.12642235 -0.284305
-0.014948199 -0.12608366 -0.2810899
-0.014971273 -0.12572752 -0.27788267
-0.014933204 -0.12659599 -0.2773576
-0.014962379 -0.12611446 -0.27395052
-0.014966383 -0.12613654 -0.271658
-0.0149289435 -0.12699059 -0.27114168
-0.014938555 -0.12689784 -0.26865444
-0.014932844 -0.12711224 -0.266834
-0.014895854 -0.12795608 -0.2663238
-0.0148697 -0.12858137 -0.26536986
-0.014821965 -0.12964186 -0.26529965
-0.014785157 -0.13048202 -0.2647822
-0.014748168 -0.13132583 -0.26427203
-0.01469494 -0.13249804 -0.26440728
-0.014641649 -0.13367201 -0.26453558
-0.014604482 -0.13451988 -0.26402298
-0.014534278 -0.13603729 -0.2647948
-0.014480162 -0.13722937 -0.26492706
-0.014442727 -0.13808335 -0.26441076
-0.014388259 -0.13928324 -0.26454237
-0.014316639 -0.14083213 -0.26531237
-0.014255993 -0.14215876 -0.26565242
-0.014218165 -0.14302167 -0.26513073
-0.014157215 -0.14435539 -0.26546365
-0.014101747 -0.14557798 -0.26558322
-0.0140637085 -0.14644572 -0.2650586
-0.014002143 -0.14779335 -0.26538518
-0.013940343 -0.1491464 -0.26570827
-0.013902062 -0.15001963 -0.26518032
-0.013845824 -0.15125987 -0.26528853
-0.013789451 -0.15250324 -0.26539257
-0.013732852 -0.15375169 -0.2654957
-0.013694301 -0.15463112 -0.264964
-0.013631433 -0.15600859 -0.26527
-0.013580425 -0.1571436 -0.26515868
-0.013541693 -0.15802716 -0.26462448
-0.013490501 -0.1591663 -0.2645107
-0.013433025 -0.16043475 -0.2646017
-0.0133941425 -0.16132177 -0.26406544
-0.013336445 -0.1625954 -0.26415113
-0.013284767 -0.16374567 -0.26403072
-0.013226735 -0.1650269 -0.26411182
-0.013187611 -0.16591944 -0.26357222
-0.013129207 -0.16720891 -0.26365283
-0.013070722 -0.16850048 -0.26372772
-0.013031417 -0.16939715 -0.26318562
-0.012972662 -0.17069489 -0.2632568
-0.012913671 -0.17199789 -0.26332712
-0.012854498 -0.17330503 -0.263395
-0.012814919 -0.1742079 -0.26284915
-0.012748927 -0.17565654 -0.26311436
-0.012689268 -0.17697476 -0.2631756
-0.012649478 -0.17788245 -0.26262683
-0.012589551 -0.17920685 -0.26268438
-0.012522771 -0.18067342 -0.26293877
-0.012482769 -0.18158594 -0.26238707
-0.012415631 -0.18306074 -0.26263648
-0.012355064 -0.1843998 -0.2626827
-0.012287473 -0.18588491 -0.26292583
-0.012247141 -0.18680497 -0.26236957
-0.012179188 -0.18829833 -0.26260775
-0.012110993 -0.18979721 -0.2628426
-0.01207042 -0.19072276 -0.262283
-0.012001859 -0.19222999 -0.26251298
-0.011940023 -0.1935979 -0.26254442
-0.011899237 -0.1945283 -0.2619819
-0.011823075 -0.19619484 -0.2623985
-0.011753666 -0.19772142 -0.262617
-0.011683949 -0.19925487 -0.26283392
-0.011642772 -0.20019422 -0.262266
-0.011579896 -0.2015858 -0.26228362
-0.01150243 -0.20328197 -0.26268503
-0.01146101 -0.20422682 -0.26211378
-0.011390388 -0.20578104 -0.2623158
-0.01131952 -0.20734091 -0.2625146
-0.011277859 -0.20829126 -0.26194003
-0.011206628 -0.20985936 -0.26213384
-0.011127657 -0.21158968 -0.26251796
-0.011055909 -0.21316956 -0.26270476
-0.011013857 -0.21412885 -0.2621248
-0.010934323 -0.21587233 -0.2624948
-0.010861948 -0.21746656 -0.26267275
-0.010819624 -0.21843204 -0.26208904
-0.010746796 -0.22003637 -0.26226422
-0.010666284 -0.2218022 -0.26262012
-0.010623689 -0.22277388 -0.26203266
-0.010550321 -0.22439075 -0.2621968
-0.010469002 -0.22617485 -0.26254484
-0.010387479 -0.22796375 -0.26288635
-0.010344462 -0.22894506 -0.26229304
-0.010270301 -0.2305802 -0.26244205
-0.010188069 -0.23238528 -0.26277328
-0.010144781 -0.23337275 -0.26217628
-0.010069998 -0.23502213 -0.26231638
-0.009986947 -0.2368457 -0.2626399
-0.009943388 -0.23783936 -0.26203915
-0.009867978 -0.23950306 -0.26217052
-0.009792226 -0.24117437 -0.26230082
-0.009716327 -0.24284917 -0.26242563
-0.009672409 -0.24385105 -0.26181993
-0.0095960535 -0.24553609 -0.2619419
-0.009519458 -0.24722664 -0.2620606
-0.009475298 -0.248234 -0.26145157
-0.009398438 -0.24993075 -0.26156312
-0.009329277 -0.25146553 -0.2614974
-0.009284906 -0.25247774 -0.26088545
-0.0092073735 -0.25418964 -0.26099128
-0.0091213705 -0.25608075 -0.26127088
-0.009043318 -0.2578045 -0.26136985
-0.008998554 -0.25882566 -0.26075247
-0.008911728 -0.26073536 -0.26102424
-0.008824602 -0.26265192 -0.26129183
-0.008779537 -0.26367992 -0.2606703
-0.00869196 -0.26560676 -0.2609316
-0.008595759 -0.26771653 -0.26136065
-0.008550363 -0.2687521 -0.26073456
-0.008470496 -0.27051705 -0.26081175
-0.00837325 -0.2726503 -0.2612333
-0.008275641 -0.27479184 -0.26164985
-0.008229762 -0.2758384 -0.26101708
-0.008140324 -0.2778077 -0.26125255
-0.008050579 -0.27978402 -0.26148388
-0.008004399 -0.28083748 -0.26084697
-0.007905405 -0.2830106 -0.26124442
-0.007806048 -0.28519195 -0.2616368
-0.007759507 -0.28625366 -0.2609949
-0.007659611 -0.28844732 -0.2613798
-0.007559351 -0.29064932 -0.26175973
-0.007458635 -0.29286158 -0.26213652
-0.0074115503 -0.29393566 -0.26148716
-0.0073103826 -0.29615834 -0.26185468
-0.0072087552 -0.29839137 -0.26221907
-0.007161309 -0.29947373 -0.2615647
-0.0070683337 -0.3015237 -0.26175162
-0.006947657 -0.30416304 -0.26243785
-0.006835666 -0.30661842 -0.26294988
-0.006787617 -0.30771452 -0.26228723
-0.006684317 -0.309986 -0.26262224
-0.0065713013 -0.3124648 -0.26312017
-0.0065228604 -0.3135698 -0.2624521
-0.006409311 -0.3160609 -0.26293957
-0.0062952414 -0.31856373 -0.26342294
-0.0062463796 -0.31967837 -0.26274905
-0.006131777 -0.32219347 -0.26322198
-0.00601675 -0.3247183 -0.26368913
-0.0059012054 -0.32725474 -0.26415214
-0.005851711 -0.3283838 -0.26346952
-0.005735624 -0.33093277 -0.26392224
-0.0056096483 -0.3336933 -0.26452968
-0.0055597033 -0.3348326 -0.26384085
-0.0054519624 -0.3372051 -0.2641206
-0.005334495 -0.33978572 -0.2645514
-0.005284159 -0.34093398 -0.2638572
-0.0051950035 -0.34291106 -0.26380244
-0.005086023 -0.34531185 -0.2640652
-0.0049865595 -0.34750986 -0.26416206
-0.00493577 -0.34866846 -0.2634616
-0.0048263036 -0.35108086 -0.263706
-0.0047556707 -0.35266384 -0.2633179
-0.0047046407 -0.35382792 -0.26261413
-0.004594322 -0.3562597 -0.26284897
-0.004552907 -0.35721838 -0.2619885
-0.004501726 -0.35838592 -0.26128262
-0.0044603692 -0.3593433 -0.26042393
-0.0044592177 -0.35944027 -0.25894472
-0.0044884477 -0.35888654 -0.25700676
-0.004437688 -0.36004448 -0.2563067
-0.0044478527 -0.3598979 -0.2546797
-0.0044784453 -0.35931343 -0.2527542
-0.004428108 -0.3604617 -0.25205997
-0.004449615 -0.36007088 -0.2502911
-0.0045018853 -0.35902026 -0.24807687
-0.0044520604 -0.36015686 -0.2473897
-0.0044848644 -0.35952228 -0.24548747
-0.0045077284 -0.3591001 -0.24374427
-0.0045414 -0.35844567 -0.241856
-0.004492268 -0.35956645 -0.2411784
-0.0045161676 -0.35912064 -0.23945093
-0.0045405733 -0.35866332 -0.23772807
-0.0044918642 -0.35977447 -0.2370563
-0.004527447 -0.35907647 -0.23519316
-0.0045634382 -0.35836902 -0.23333777
-0.0045152116 -0.35946915 -0.23267265
-0.0045519304 -0.35874516 -0.23082718
-0.004578486 -0.35823876 -0.22913548
-0.00461624 -0.35749125 -0.2273015
-0.004568708 -0.35857555 -0.22664595
-0.0045963507 -0.35804433 -0.2249692
-0.004635308 -0.35726944 -0.2231511
-0.0045882277 -0.35834342 -0.2225018
-0.004617117 -0.357784 -0.22083789
-0.0046572075 -0.35698316 -0.21903665
-0.0046105827 -0.35804677 -0.21839361
-0.0046514487 -0.3572283 -0.21660168
-0.0046817577 -0.35663638 -0.21496058
-0.004713175 -0.35602003 -0.21331644
-0.004667214 -0.35706848 -0.21268256
-0.0046990905 -0.3564414 -0.21104951
-0.004742334 -0.3555691 -0.20928271
-0.004696829 -0.35660717 -0.2086551
-0.004719601 -0.3561748 -0.20716582
-0.0047654603 -0.35524464 -0.20539661
-0.004720386 -0.35627288 -0.20477495
-0.0047454163 -0.35579062 -0.20328349
-0.0047819116 -0.35506076 -0.20166047
-0.004798121 -0.35476762 -0.20029764
-0.0047536157 -0.35578287 -0.19968383
-0.0047712596 -0.3554582 -0.19831629
-0.0047977674 -0.35494196 -0.19685037
-0.0047536152 -0.35594916 -0.19624144
-0.0047825496 -0.35537988 -0.19476111
-0.004845732 -0.35407132 -0.1928846
-0.0048020547 -0.35506767 -0.19228221
-0.0048597604 -0.35387623 -0.19049151
-0.0048694196 -0.3537211 -0.18927424
-0.0048747133 -0.3536599 -0.18811461
-0.004831568 -0.35464412 -0.18751955
-0.004855931 -0.35417065 -0.18615101
-0.004916049 -0.35292467 -0.18438396
-0.004873344 -0.35389882 -0.18379499
-0.013379004 -0.19342346 -0.79743093
-0.015991095 -0.12937321 -0.5305886
-0.016085746 -0.12695415 -0.51425713
-0.01602262 -0.12839414 -0.51338655
-0.016062764 -0.12731415 -0.50279486
-0.016081735 -0.12675415 -0.49442363
-0.01602072 -0.12814605 -0.49358213
-0.016024021 -0.12797187 -0.48691773
-0.016048037 -0.12729582 -0.47854948
-0.015988661 -0.12865028 -0.4777306
-0.015990732 -0.12851164 -0.471556
-0.016019763 -0.1277202 -0.46319246
-0.016033186 -0.12731032 -0.45634094
-0.015976157 -0.12861125 -0.45555443
-0.015998008 -0.12800029 -0.4482212
-0.016015261 -0.12750298 -0.44142094
-0.0159598 -0.1287682 -0.440656
-0.015982643 -0.12813874 -0.43361932
-0.016000971 -0.12762061 -0.42708573
-0.015947016 -0.12885144 -0.42634156
-0.015976688 -0.1280622 -0.41912827
-0.015995616 -0.12753454 -0.4128835
-0.016022148 -0.12682529 -0.40618795
-0.01597045 -0.1280046 -0.40547496
-0.01598968 -0.12747423 -0.39951736
-0.016013477 -0.12683548 -0.39334098
-0.015963137 -0.12798385 -0.39264667
-0.015982302 -0.12745929 -0.3869795
-0.016009595 -0.12674065 -0.38084364
-0.015960582 -0.12785876 -0.38016766
-0.01598307 -0.12725826 -0.374538
-0.016006831 -0.12662864 -0.3689252
-0.016024979 -0.1261354 -0.36379662
-0.015977805 -0.12721151 -0.36314604
-0.016004656 -0.12651148 -0.35757735
-0.016022105 -0.12603842 -0.35272756
-0.015976107 -0.12708771 -0.3520932
-0.015995152 -0.1265783 -0.34726802
-0.016008042 -0.12621753 -0.34291947
-0.015963068 -0.12724344 -0.34229922
-0.015977377 -0.12685038 -0.33797258
-0.015996382 -0.126346 -0.33342814
-0.016012648 -0.1259083 -0.32912865
-0.015969152 -0.12690052 -0.32852876
-0.015983038 -0.12652126 -0.32447928
-0.016001683 -0.12602928 -0.3202127
-0.015959121 -0.12700018 -0.3196257
-0.01597138 -0.1266622 -0.3158366
-0.015992373 -0.1261166 -0.31160256
-0.015950717 -0.12706688 -0.31102803
-0.01596517 -0.12667884 -0.30726755
-0.015980443 -0.1262721 -0.30352005
-0.015996533 -0.12584673 -0.29978567
-0.015956143 -0.12676813 -0.2992286
-0.015969425 -0.12641092 -0.29573452
-0.015983498 -0.12603575 -0.29225105
-0.01594389 -0.12693925 -0.2917048
-0.015959144 -0.12653708 -0.2882372
-0.015979357 -0.12601767 -0.28456008
-0.015991848 -0.12568277 -0.2813426
-0.015953418 -0.12655947 -0.28081256
-0.015967032 -0.12619886 -0.27760795
-0.015985593 -0.12572141 -0.27419826
-0.015947916 -0.12658094 -0.2736786
-0.015945617 -0.12660006 -0.27138785
-0.015947932 -0.12651011 -0.26889881
-0.015910763 -0.12735802 -0.2683862
-0.015900377 -0.12757021 -0.26656702
-0.015872572 -0.12819614 -0.2656127
-0.015826477 -0.129256 -0.26554286
-0.015789486 -0.13009982 -0.2650327
-0.01575265 -0.13093998 -0.26451525
-0.015701845 -0.13211127 -0.2646511
-0.015664766 -0.13295709 -0.2641397
-0.0156137915 -0.13413218 -0.26426736
-0.015548436 -0.13564773 -0.26504037
-0.015511092 -0.13649964 -0.2645253
-0.015459331 -0.13769284 -0.2646569
-0.015407323 -0.13889179 -0.2647891
-0.0153406 -0.14043878 -0.2655603
-0.015302895 -0.14129895 -0.26504025
-0.015245406 -0.14262708 -0.26537943
-0.015187724 -0.14395954 -0.26571319
-0.015149776 -0.14482519 -0.26518983
-0.015096681 -0.14604892 -0.2653087
-0.0150383925 -0.1473953 -0.2656361
-0.0150002325 -0.14826578 -0.2651098
-0.014941585 -0.14962032 -0.265432
-0.014887808 -0.15085961 -0.26554084
-0.014833894 -0.15210204 -0.26564547
-0.014795432 -0.1529794 -0.26511502
-0.014741205 -0.15422897 -0.26521748
-0.014681604 -0.15560518 -0.26552427
-0.0146429315 -0.15648738 -0.2649909
-0.014593512 -0.15762313 -0.26487917
-0.014543972 -0.15876164 -0.26476577
-0.014505179 -0.1596466 -0.26423073
-0.014450074 -0.16091615 -0.26432112
-0.014394832 -0.16218886 -0.2644074
-0.014344804 -0.16333848 -0.26428738
-0.014305769 -0.16422896 -0.263749
-0.014250102 -0.1655113 -0.26382947
-0.014194169 -0.16679983 -0.26391068
-0.014154953 -0.16769443 -0.26336983
-0.014098833 -0.16898711 -0.26344407
-0.014042532 -0.17028391 -0.26351583
-0.014003135 -0.17118266 -0.26297247
-0.013946517 -0.17248677 -0.26304218
-0.013889716 -0.17379503 -0.2631094
-0.013826999 -0.17524244 -0.26337537
-0.0137873 -0.17614806 -0.26282787
-0.013730013 -0.17746739 -0.26288846
-0.0136725465 -0.17879084 -0.26294658
-0.013632665 -0.17970061 -0.26239654
-0.013569043 -0.18116868 -0.26265007
-0.013505177 -0.18264222 -0.2629003
-0.013465055 -0.18355748 -0.26234695
-0.013406854 -0.18489766 -0.26239252
-0.013342419 -0.18638425 -0.26263478
-0.013277738 -0.18787636 -0.26287374
-0.013237285 -0.18879919 -0.2623158
-0.013172246 -0.19029954 -0.2625498
-0.013106961 -0.1918055 -0.26278055
-0.013066266 -0.19273381 -0.2622193
-0.013006801 -0.19410287 -0.2622501
-0.012934728 -0.19576783 -0.26266766
-0.012893792 -0.19670165 -0.26210308
-0.012827533 -0.19822975 -0.2623207
-0.012760982 -0.19976468 -0.26253676
-0.012700569 -0.20115532 -0.26255497
-0.0126593 -0.20209673 -0.2619858
-0.012585778 -0.20379478 -0.2623861
-0.012518433 -0.20534775 -0.26258892
-0.012476893 -0.20629534 -0.26201603
-0.012409181 -0.2078567 -0.26221395
-0.012341227 -0.20942353 -0.26240855
-0.012299446 -0.21037665 -0.26183233
-0.012224427 -0.21210884 -0.26221535
-0.012155838 -0.21369019 -0.26240128
-0.012080389 -0.2154321 -0.2627723
-0.012038186 -0.21639484 -0.26219022
-0.011968968 -0.21799055 -0.2623673
-0.011899426 -0.21959363 -0.2625433
-0.011856981 -0.22056189 -0.2619579
-0.0117804045 -0.22232956 -0.26231274
-0.011710312 -0.22394517 -0.26247767
-0.011633085 -0.22572769 -0.26282668
-0.011590219 -0.22670555 -0.2622355
-0.01151263 -0.22849633 -0.2625759
-0.011441732 -0.23013023 -0.26272568
-0.011398596 -0.23111425 -0.26213074
-0.011320297 -0.23292121 -0.2624609
-0.011248777 -0.23456934 -0.2626018
-0.01120537 -0.23555954 -0.26200312
-0.011126259 -0.237385 -0.26232556
-0.011054113 -0.23904744 -0.2624577
-0.010981633 -0.24071749 -0.2625888
-0.010937834 -0.24171664 -0.26198474
-0.010865081 -0.24339291 -0.2621087
-0.010791999 -0.2450767 -0.2622315
-0.010747958 -0.24608135 -0.2616241
-0.010674517 -0.24777336 -0.2617419
-0.010600921 -0.24946886 -0.26185426
-0.010556639 -0.25047898 -0.26124355
-0.010489862 -0.25201488 -0.26117718
-0.010415604 -0.25372553 -0.26128381
-0.010333684 -0.2556151 -0.2615644
-0.010289042 -0.25663346 -0.26094872
-0.010214143 -0.25835872 -0.2610468
-0.010131409 -0.26026687 -0.26131955
-0.010086496 -0.2612914 -0.26070014
-0.010003311 -0.26320985 -0.26096663
-0.009919827 -0.26513514 -0.26122892
-0.009874613 -0.26616657 -0.2606053
-0.009783123 -0.26827857 -0.26103303
-0.009706538 -0.27004227 -0.26111102
-0.009614204 -0.2721736 -0.26153377
-0.009568506 -0.27321607 -0.2609035
-0.009475626 -0.27535984 -0.26131874
-0.00939028 -0.2773276 -0.2615552
-0.009344251 -0.2783776 -0.26092035
-0.009258447 -0.28035575 -0.2611506
-0.009164365 -0.282527 -0.26154923
-0.009118004 -0.28358456 -0.26090983
-0.009023377 -0.28576818 -0.26130092
-0.008928391 -0.28795996 -0.261687
-0.008833043 -0.29016006 -0.26206812
-0.008786141 -0.29123 -0.26142126
-0.008690161 -0.2934445 -0.2617967
-0.008593903 -0.29566532 -0.26216546
-0.008546639 -0.2967435 -0.2615136
-0.00844975 -0.2989788 -0.26187667
-0.008360869 -0.3010272 -0.26206458
-0.008313273 -0.30211297 -0.26140815
-0.008198901 -0.3047553 -0.26209262
-0.00809243 -0.3072133 -0.26260313
-0.0079940315 -0.30948293 -0.26293933
-0.007945802 -0.3105831 -0.26227418
-0.007838304 -0.31306452 -0.2627706
-0.007730476 -0.31555343 -0.26325944
-0.0076818247 -0.31666327 -0.26258847
-0.007573275 -0.3191687 -0.26307032
-0.0074643926 -0.3216816 -0.26354462
-0.0074153193 -0.32280102 -0.26286784
-0.0073058037 -0.32532844 -0.26333347
-0.0071957773 -0.3278675 -0.26379496
-0.0070854113 -0.3304143 -0.2642491
-0.0070357057 -0.33154815 -0.26356354
-0.006916023 -0.33431163 -0.26416925
-0.006813202 -0.33668223 -0.2644502
-0.0067630745 -0.33782575 -0.26375887
-0.0066511105 -0.34040892 -0.26418814
-0.0065652276 -0.34238473 -0.2641342
-0.0065147695 -0.34353578 -0.2634383
-0.0064105294 -0.34593877 -0.26369977
-0.0063150045 -0.34813866 -0.26379552
-0.006210426 -0.3505492 -0.26404113
-0.0061594574 -0.3517119 -0.26333818
-0.0060903956 -0.35329565 -0.26294965
-0.00598497 -0.35572553 -0.26318568
-0.0059337593 -0.35689372 -0.2624794
-0.0058915694 -0.35785204 -0.26161912
-0.005849408 -0.35880974 -0.26076025
-0.005798257 -0.3599766 -0.26005477
-0.00579318 -0.3600717 -0.25857666
-0.005816129 -0.35951498 -0.25664046
-0.005821371 -0.35937032 -0.25501227
-0.005770792 -0.36052415 -0.25431472
-0.005795086 -0.35993662 -0.25239095
-0.0058108387 -0.35954803 -0.2506207
-0.005760713 -0.3606915 -0.24992937
-0.0058051073 -0.3596371 -0.2477173
-0.005831351 -0.35900506 -0.24581347
-0.0057817674 -0.36013618 -0.24512963
-0.0057991096 -0.35971135 -0.24338798
-0.005826466 -0.35905397 -0.24150142
-0.005844633 -0.35861036 -0.23977257
-0.0057957144 -0.35972628 -0.2390979
-0.0058145956 -0.35926637 -0.23737656
-0.005843619 -0.3585709 -0.23551184
-0.005795152 -0.3596765 -0.2348434
-0.0058248327 -0.3589661 -0.23298974
-0.005854998 -0.35824463 -0.23114268
-0.0058758194 -0.35774046 -0.22944959
-0.0058280462 -0.35883024 -0.22879072
-0.005859483 -0.35807973 -0.22695847
-0.0058813924 -0.35755074 -0.22528033
-0.005834071 -0.35863024 -0.22462769
-0.005866709 -0.3578523 -0.22281136
-0.005889854 -0.35729513 -0.22114605
-0.005842985 -0.35836428 -0.22049965
-0.0058767595 -0.35756043 -0.21870019
-0.0059110643 -0.35674447 -0.21690667
-0.0059356354 -0.3561547 -0.21526417
-0.0058894632 -0.357208 -0.21462737
-0.0059153056 -0.35658905 -0.21298476
-0.005941406 -0.35596424 -0.2113503
-0.0058956593 -0.3570078 -0.21071939
-0.0059325616 -0.35613248 -0.2089543
-0.0059503103 -0.35570204 -0.2074638
-0.0059049902 -0.3567359 -0.20683877
-0.005944404 -0.3558027 -0.20507132
-0.0059643174 -0.3553224 -0.2035786
-0.0059948894 -0.35459483 -0.20195416
-0.0059502213 -0.3556138 -0.20133811
-0.0059621744 -0.35531864 -0.19997644
-0.0059753302 -0.35499567 -0.19860783
-0.005930991 -0.35600716 -0.1979963
-0.005952583 -0.3554886 -0.19653173
-0.0059762816 -0.35492134 -0.19505015
-0.0059323222 -0.35592413 -0.19444387
-0.0059881313 -0.35461208 -0.19256939
-0.0060386304 -0.3534234 -0.19077694
-0.006044528 -0.35326973 -0.18955876
-0.006001255 -0.35425687 -0.18896194
-0.0060032415 -0.35419407 -0.18780324
-0.0060228575 -0.35372242 -0.18643355
-0.0059798853 -0.3547027 -0.18584089
-0.0060330373 -0.35345337 -0.18407577
-0.016285632 -0.18282977 -0.7589661
-0.01619308 -0.18494104 -0.75768965
-0.017700477 -0.1298526 -0.5288246
-0.01774059 -0.1276025 -0.5132784
-0.017734917 -0.12701432 -0.5045454
-0.017672816 -0.12843095 -0.50368893
-0.017671956 -0.1277094 -0.49473968
-0.017659415 -0.12741724 -0.48759237
-0.01759908 -0.1287936 -0.48676026
-0.017595172 -0.12823148 -0.478853
-0.017579194 -0.1281017 -0.47267252
-0.017582653 -0.12732589 -0.46431512
-0.017524783 -0.12864603 -0.46351698
-0.017518716 -0.12822136 -0.45664322
-0.017518362 -0.12762134 -0.44930485
-0.01746206 -0.1289057 -0.44852835
-0.017461753 -0.12832958 -0.44149154
-0.017463248 -0.12770976 -0.4344493
-0.01740851 -0.12895845 -0.43369436
-0.017409999 -0.12836243 -0.42693654
-0.017415393 -0.12765357 -0.41994673
-0.017417643 -0.1270624 -0.41346705
-0.017365163 -0.12825955 -0.41274324
-0.01737197 -0.12754169 -0.40605283
-0.017375477 -0.12694415 -0.39985994
-0.017324442 -0.12810837 -0.39915606
-0.017327717 -0.12753733 -0.3932149
-0.017332165 -0.12694073 -0.3873062
-0.017282456 -0.12807466 -0.38662064
-0.017289044 -0.12742807 -0.38072577
-0.017294304 -0.12683487 -0.3750915
-0.017300883 -0.1262111 -0.36946997
-0.017253106 -0.12730098 -0.36881107
-0.01725885 -0.12671928 -0.3634558
-0.017268479 -0.12602678 -0.3578855
-0.017221937 -0.12708846 -0.35724363
-0.017225197 -0.12660857 -0.35239744
-0.017226737 -0.12619036 -0.34779972
-0.017181251 -0.12722796 -0.34717238
-0.017181491 -0.12686194 -0.34282702
-0.017185558 -0.12638626 -0.33826497
-0.017187748 -0.12597577 -0.3339473
-0.01714374 -0.12697968 -0.33334038
-0.017147342 -0.12653722 -0.3290453
-0.017148918 -0.12616338 -0.32499242
-0.017105844 -0.12714596 -0.32439837
-0.017111843 -0.12664871 -0.3201349
-0.017112631 -0.12631528 -0.3163413
-0.017070463 -0.12727724 -0.31575972
-0.017078795 -0.12672688 -0.31152996
-0.017081752 -0.12634394 -0.30776632
-0.017085537 -0.12594227 -0.3040156
-0.017044693 -0.12687397 -0.3034523
-0.017046487 -0.12654012 -0.29994404
-0.017052352 -0.126091 -0.296222
-0.017012324 -0.12700413 -0.2956699
-0.01701606 -0.1266262 -0.29219207
-0.017024003 -0.12612969 -0.2884988
-0.016984787 -0.12702426 -0.28795794
-0.016987108 -0.12670083 -0.28472802
-0.016993579 -0.1262606 -0.28128856
-0.016997306 -0.12590563 -0.27808374
-0.016959205 -0.12677479 -0.27755824
-0.016964044 -0.12639415 -0.27436638
-0.01696226 -0.12621048 -0.27163604
-0.016924823 -0.12706454 -0.27111968
-0.016920222 -0.12696794 -0.26862568
-0.016905192 -0.12717599 -0.26679298
-0.016868204 -0.12801977 -0.26628286
-0.016842354 -0.12854269 -0.2651216
-0.016801732 -0.12949151 -0.2648282
-0.01676862 -0.1302244 -0.26410028
-0.01673172 -0.13106616 -0.26359138
-0.01668332 -0.13223697 -0.2637288
-0.016642654 -0.13318583 -0.2634234
