ply
format ascii 1.0
element vertex 1421
property float x
property float y
property float z
end_header
0.06178032 -0.29763407 -2.1186597
0.06150815 -0.29838485 -2.1182976
0.06165449 -0.2997912 -2.1185522
0.061904255 -0.30136922 -2.1189601
0.06162985 -0.3021262 -2.118595
0.061772022 -0.30354866 -2.1188443
0.062013652 -0.30513972 -2.119241
0.061737005 -0.30590287 -2.1188726
0.06187508 -0.30734158 -2.1191168
0.062111855 -0.30895093 -2.119507
0.062347274 -0.31056905 -2.1198957
0.06206714 -0.31134182 -2.1195228
0.062297706 -0.31296837 -2.119905
0.06252574 -0.31460172 -2.1202836
0.062243126 -0.31538135 -2.1199074
0.062368326 -0.3168561 -2.1201346
0.06259041 -0.31850597 -2.120505
0.062305547 -0.3192918 -2.120126
0.0625239 -0.32095197 -2.1204917
0.062640496 -0.32244542 -2.120707
0.06285533 -0.32412073 -2.1210685
0.06256697 -0.3249162 -2.1206846
0.062777 -0.3266 -2.1210392
0.0629846 -0.3282907 -2.1213908
0.06269375 -0.329093 -2.1210039
0.06279995 -0.33061662 -2.1212056
0.063002914 -0.33232626 -2.1215508
0.062709816 -0.3331348 -2.1211607
0.06290777 -0.33485246 -2.1214993
0.06310461 -0.33657953 -2.1218367
0.06339389 -0.3384915 -2.1223116
0.063096814 -0.339311 -2.1219163
0.06328731 -0.34105623 -2.1222453
0.06347409 -0.34280604 -2.122569
0.063174516 -0.3436324 -2.1221704
0.0634557 -0.34558237 -2.1226351
0.063732676 -0.34753823 -2.123094
0.06343011 -0.34837288 -2.1226914
0.06360714 -0.35015294 -2.1230023
0.06387711 -0.35212922 -2.123452
0.06414406 -0.35411364 -2.1238976
0.06383726 -0.35495996 -2.1234894
0.064005144 -0.35676566 -2.123788
0.064168304 -0.3585737 -2.1240802
0.06385901 -0.35942692 -2.1236687
0.06392453 -0.36105186 -2.1238158
0.06399049 -0.36268726 -2.1239638
0.06385874 -0.36392024 -2.1238174
0.063546985 -0.36478028 -2.1234026
0.06332876 -0.3658377 -2.1231272
0.06374822 -0.3682518 -2.123804
0.06343424 -0.36911795 -2.1233861
0.06329894 -0.37036818 -2.1232352
0.06234153 -0.36984476 -2.121856
0.062028814 -0.37070742 -2.1214397
0.061437786 -0.37096053 -2.1206076
0.060579997 -0.37061834 -2.119376
0.05972222 -0.37026134 -2.1181438
0.05941325 -0.37111366 -2.1177328
0.058562968 -0.370751 -2.1165113
0.057535816 -0.36997396 -2.1150246
0.05723032 -0.3708167 -2.1146178
0.05647596 -0.37063327 -2.1135385
0.055546653 -0.37003484 -2.112197
0.055244144 -0.37086937 -2.1117945
0.054319847 -0.37025607 -2.110459
0.053486276 -0.36983758 -2.1092596
0.052568547 -0.36920542 -2.1079333
0.052271 -0.3700262 -2.1075373
0.051446382 -0.3695894 -2.1063497
0.05071181 -0.36935332 -2.105297
0.050417006 -0.37016657 -2.1049047
0.04959832 -0.36970675 -2.1037247
0.04878447 -0.36924323 -2.1025517
0.048492644 -0.37004825 -2.1021633
0.04768265 -0.36957088 -2.1009953
0.04687503 -0.36908376 -2.0998304
0.04615636 -0.36880374 -2.0987988
0.04586877 -0.3695971 -2.0984159
0.04515321 -0.36930525 -2.0973885
0.044356145 -0.36879224 -2.0962377
0.044071287 -0.36957803 -2.0958586
0.04336283 -0.3692699 -2.0948408
0.04265683 -0.3689549 -2.0938258
0.04237447 -0.3697338 -2.09345
0.04158967 -0.36919147 -2.0923157
0.04088949 -0.36885688 -2.0913086
0.040192515 -0.3685173 -2.090306
0.039914124 -0.3692853 -2.0899355
0.039303854 -0.369159 -2.0890632
0.03861286 -0.368803 -2.0880685
0.038336705 -0.3695648 -2.0877008
0.03764943 -0.36919847 -2.0867112
0.037046626 -0.3690516 -2.085849
0.036772713 -0.36980724 -2.0854845
0.03617291 -0.3696522 -2.084626
0.03557393 -0.3694884 -2.0837686
0.034898315 -0.36909664 -2.0827944
0.034627628 -0.36984336 -2.0824342
0.033954576 -0.36943802 -2.0814633
0.033364292 -0.36925712 -2.0806177
0.033095855 -0.36999765 -2.0802605
0.032508563 -0.3698085 -2.079419
0.03192133 -0.36960825 -2.0785768
0.03165489 -0.37034327 -2.0782223
0.030995801 -0.36991242 -2.0772705
0.030416036 -0.36970434 -2.076439
0.029995352 -0.36996293 -2.075849
0.029731624 -0.37069044 -2.075498
0.029312277 -0.37094444 -2.07491
0.028816393 -0.37095842 -2.0742052
0.028553909 -0.37168252 -2.0738559
0.028060956 -0.3716925 -2.073155
0.027491799 -0.37145624 -2.0723374
0.027231058 -0.3721755 -2.0719905
0.02680464 -0.37237203 -2.0713904
0.026237497 -0.37211534 -2.0705752
0.0257307 -0.37203956 -2.0698519
0.025472306 -0.37275237 -2.0695078
0.024904845 -0.37246582 -2.0686913
0.024513874 -0.3727412 -2.068144
0.02425694 -0.37344998 -2.0678022
0.023700904 -0.37317374 -2.067002
0.023045214 -0.37255523 -2.0660489
0.022790613 -0.37325758 -2.06571
0.021908091 -0.3718537 -2.064408
0.02159281 -0.37233835 -2.0639756
0.020134643 -0.36893952 -2.0617886
0.019886442 -0.3696242 -2.0614583
0.01922708 -0.36889553 -2.0604963
0.018388811 -0.36753064 -2.0592585
0.018144038 -0.36820588 -2.0589328
0.8671565 -0.5039165 -3.2801554
0.84654933 -0.5003354 -3.250537
0.84496933 -0.5046941 -3.248434
0.797729 -0.4892325 -3.1802728
0.7755805 -0.48428956 -3.148399
0.75378746 -0.47927126 -3.1170318
0.7523603 -0.48320827 -3.1151323
0.73274255 -0.4788368 -3.0869012
0.7143849 -0.47484007 -3.0604868
0.7130202 -0.47860482 -3.0586705
0.6966462 -0.47525585 -3.035118
0.68110394 -0.47213238 -3.012764
0.6797914 -0.47575325 -3.011017
0.6644978 -0.47250444 -2.9890144
0.64926785 -0.46912396 -2.967098
0.6351462 -0.4661376 -2.9467816
0.6339069 -0.46955627 -2.9451323
0.62038857 -0.46665314 -2.9256825
0.6069819 -0.46366262 -2.9063892
0.60578686 -0.46695927 -2.9047987
0.5918829 -0.46348608 -2.8847766
0.57801276 -0.45987874 -2.8647978
0.57686394 -0.46304792 -2.8632689
0.56518155 -0.46041608 -2.846456
0.5545439 -0.4582383 -2.8311546
0.54259235 -0.45520538 -2.8139422
0.5415 -0.45821866 -2.8124886
0.5283684 -0.45430842 -2.7935555
0.5209588 -0.45357594 -2.7829258
0.5199003 -0.45649588 -2.781517
0.5090906 -0.45362762 -2.7659445
0.49693707 -0.44983217 -2.7484155
0.4959172 -0.45264554 -2.7470582
0.22397403 -0.28957403 -2.3519933
0.166523 -0.25577787 -2.2685554
0.16383153 -0.255482 -2.2646933
0.16342618 -0.2566002 -2.2641537
0.1604087 -0.25605303 -2.2598162
0.15739414 -0.25547436 -2.2554812
0.15699857 -0.25656554 -2.2549548
0.15391171 -0.25588912 -2.250513
0.15165387 -0.25572783 -2.2472763
0.15126692 -0.25679526 -2.2467613
0.14863533 -0.25634488 -2.242979
0.14628103 -0.25605452 -2.2395997
0.14406557 -0.25583404 -2.2364213
0.14369011 -0.25686976 -2.2359216
0.14148763 -0.2566221 -2.232761
0.13942319 -0.25644812 -2.2298005
0.13905446 -0.2574653 -2.2293098
0.13700032 -0.2572649 -2.2263632
0.13495316 -0.25704706 -2.2234256
0.13459091 -0.25804636 -2.2229435
0.13268232 -0.25789738 -2.220207
0.1305249 -0.25754097 -2.2171068
0.1286285 -0.25735748 -2.2143867
0.12827572 -0.2583307 -2.213917
0.12638898 -0.25812298 -2.2112095
0.12450789 -0.25789854 -2.2085097
0.12416107 -0.25885525 -2.208048
0.12216284 -0.2585064 -2.205176
0.120297834 -0.2582408 -2.2024975
0.118311584 -0.25785634 -2.1996412
0.11797423 -0.25878695 -2.1991923
0.115998685 -0.25837654 -2.1963506
0.11377894 -0.2577413 -2.193151
0.11344855 -0.25865272 -2.1927114
0.11148908 -0.25819582 -2.1898909
0.109536834 -0.2577217 -2.18708
0.109212905 -0.25861526 -2.1866488
0.10726968 -0.2581138 -2.18385
0.10533294 -0.25759447 -2.1810596
0.103404045 -0.2570585 -2.1782799
0.103089824 -0.2579253 -2.1778617
0.1012928 -0.2574714 -2.175274
0.099747606 -0.25722182 -2.1730535
0.09943886 -0.2580735 -2.1726427
0.097779706 -0.2576925 -2.1702547
0.09624783 -0.2574084 -2.1680522
0.095944315 -0.2582457 -2.1676483
0.09454337 -0.25805652 -2.1656368
0.09302438 -0.25773948 -2.1634517
0.091510385 -0.25740874 -2.161273
0.091214076 -0.25822613 -2.1608787
0.089829475 -0.25799254 -2.158889
0.08844754 -0.25774485 -2.1569023
0.08815572 -0.25854987 -2.1565142
0.086900696 -0.2584025 -2.154713
0.085409544 -0.2580048 -2.1525645
0.085122205 -0.25879747 -2.152182
0.08376008 -0.25850222 -2.1502223
0.08240041 -0.25819257 -2.1482654
0.08092513 -0.2577471 -2.1461382
0.08064476 -0.25852057 -2.145765
0.079177976 -0.25805554 -2.143649
0.07771604 -0.25757664 -2.1415398
0.07744064 -0.25833634 -2.1411734
0.07598597 -0.2578366 -2.1390736
0.07453591 -0.25732273 -2.1369798
0.074265495 -0.25806868 -2.13662
0.07270652 -0.25740704 -2.134365
0.071384616 -0.2569852 -2.1324582
0.069949605 -0.25642055 -2.1303842
0.06968667 -0.25714585 -2.1300342
0.06814462 -0.25643167 -2.1278017
0.06637524 -0.2554384 -2.1252337
0.06611829 -0.2561472 -2.1248918
0.064525284 -0.25531882 -2.122582
0.06277026 -0.2542801 -2.120033
0.062519446 -0.25497198 -2.1196992
0.06089216 -0.25404516 -2.117337
0.059215803 -0.25303662 -2.1149015
0.057946086 -0.2524887 -2.1130648
0.0577036 -0.25315762 -2.112742
0.056332614 -0.2524605 -2.110755
0.05587436 -0.2528565 -2.1101134
0.05563483 -0.25351727 -2.1097946
0.055346873 -0.25411814 -2.1094043
0.055735163 -0.25556046 -2.1100123
0.055494353 -0.25622475 -2.1096919
0.05599492 -0.25782567 -2.1104662
0.057038102 -0.2601302 -2.1120427
0.058284458 -0.26271817 -2.1139202
0.05803581 -0.2634041 -2.1135893
0.058895 -0.26552945 -2.114896
0.06002667 -0.2680316 -2.1166062
0.05977245 -0.2687329 -2.116268
0.060293205 -0.27046248 -2.1170757
0.060589463 -0.27190644 -2.1175523
0.060332246 -0.272616 -2.11721
0.06051301 -0.2739189 -2.1175158
0.060475837 -0.27493274 -2.1174994
0.060543727 -0.276095 -2.1176386
0.06028426 -0.2768108 -2.1172934
0.060351018 -0.27798077 -2.1174314
0.06030883 -0.27900422 -2.117408
0.06004811 -0.2797234 -2.1170611
0.06011207 -0.28090402 -2.1171956
0.060279906 -0.2822395 -2.1174843
0.06001745 -0.2829635 -2.117135
0.06018333 -0.2843087 -2.1174212
0.060348254 -0.2856609 -2.117706
0.060510144 -0.28701705 -2.1179872
0.060244694 -0.2877493 -2.1176338
0.0604036 -0.28911367 -2.1179106
0.06066638 -0.29064232 -2.1183424
0.060398694 -0.29138076 -2.1179862
0.060553532 -0.29276133 -2.1182578
0.060810365 -0.2943065 -2.1186814
0.060959857 -0.29569706 -2.1189456
0.060688946 -0.2964444 -2.118585
0.06093979 -0.29800603 -2.119001
0.06108405 -0.299411 -2.1192582
0.060810897 -0.30016452 -2.1188946
0.06105681 -0.30174425 -2.119304
0.061196897 -0.30316532 -2.1195562
0.0609215 -0.30392504 -2.1191895
0.061159287 -0.3055178 -2.1195874
0.061295282 -0.30695513 -2.1198344
0.06152945 -0.30856276 -2.1202278
0.06125056 -0.3093321 -2.1198566
0.061482143 -0.3109519 -2.120247
0.0617101 -0.31257674 -2.120632
0.061428722 -0.31335294 -2.1202576
0.06165292 -0.31498796 -2.1206377
0.061776035 -0.31646132 -2.1208675
0.061492406 -0.31724373 -2.1204898
0.061710663 -0.31889528 -2.1208622
0.061926413 -0.32055375 -2.121231
0.062040925 -0.3220458 -2.121449
0.061753824 -0.3228378 -2.121067
0.061964802 -0.32451484 -2.12143
0.062172227 -0.32619688 -2.1217875
0.06188263 -0.32699576 -2.1214023
0.06208638 -0.3286882 -2.1217554
0.062190495 -0.33021042 -2.1219597
0.061898656 -0.3310155 -2.1215713
0.062097758 -0.33272687 -2.1219182
0.06229311 -0.3344428 -2.1222599
0.062487338 -0.3361681 -2.1226006
0.06219175 -0.3369835 -2.1222072
0.062476434 -0.33889753 -2.122684
0.06266433 -0.34064102 -2.1230164
0.062366005 -0.34146395 -2.1226192
0.062548935 -0.34321544 -2.1229446
0.06282698 -0.34516332 -2.1234133
0.06252591 -0.34599385 -2.1230125
0.06279827 -0.34795174 -2.1234732
0.062972695 -0.34973004 -2.1237874
0.063239545 -0.35170427 -2.1242409
0.06293424 -0.35254645 -2.1238346
0.06319657 -0.35453296 -2.1242821
0.063361846 -0.35633692 -2.124584
0.0630538 -0.35718668 -2.124174
0.06321312 -0.35899642 -2.1244678
0.06327657 -0.36061996 -2.1246176
0.06296629 -0.36147588 -2.1242046
0.063029155 -0.36311272 -2.124354
0.06289593 -0.36434633 -2.1242082
0.06267719 -0.3654034 -2.1239336
0.062365174 -0.36626413 -2.1235182
0.06277857 -0.36868092 -2.1241977
0.062642254 -0.3699305 -2.1240478
0.0623278 -0.37079796 -2.1236293
0.061375763 -0.37027216 -2.122248
0.06078632 -0.3705263 -2.1214137
0.06047436 -0.37138692 -2.1209984
0.059621174 -0.37104264 -2.119765
0.05876803 -0.37068358 -2.1185312
0.057920855 -0.37032303 -2.1173058
0.05761337 -0.37117124 -2.1168966
0.05659235 -0.3703915 -2.1154072
0.05584059 -0.37020978 -2.1143248
0.05553633 -0.3710491 -2.11392
0.054612402 -0.3704483 -2.112576
0.053691734 -0.36983743 -2.1112363
0.053390954 -0.37066716 -2.110836
0.05256201 -0.37024662 -2.1096346
0.051649645 -0.36961207 -2.1083062
0.05082814 -0.3691773 -2.1071148
0.05053209 -0.36999398 -2.1067207
0.049801357 -0.36975625 -2.1056664
0.048985794 -0.3692985 -2.1044827
0.04869248 -0.37010762 -2.1040924
0.04788323 -0.36964208 -2.1029174
0.047076352 -0.36916676 -2.1017456
0.046786018 -0.36996767 -2.1013594
0.04598301 -0.36947852 -2.1001923
0.045268178 -0.3691968 -2.0991592
0.04455522 -0.3689067 -2.0981286
0.044268873 -0.36969662 -2.0977476
0.043476418 -0.36918154 -2.0965948
0.042770553 -0.36887515 -2.0955737
0.04248694 -0.36965755 -2.0951962
0.041784793 -0.3693408 -2.0941799
0.041003108 -0.3688005 -2.0930417
0.04072222 -0.36957535 -2.0926678
0.040025894 -0.36923906 -2.091659
0.039332755 -0.3688978 -2.0906549
0.038724564 -0.3687729 -2.0897799
0.03844717 -0.36953813 -2.0894108
0.037760008 -0.3691804 -2.0884147
0.037075333 -0.3688158 -2.0874217
0.03680042 -0.3695742 -2.0870557
0.036200695 -0.36942598 -2.0861921
0.035602972 -0.36927235 -2.0853312
0.035006076 -0.36910993 -2.0844712
0.034734152 -0.36986002 -2.0841093
0.03406236 -0.3694666 -2.0831337
0.033391908 -0.369063 -2.0821595
0.033122465 -0.36980626 -2.081801
0.03253526 -0.369624 -2.0809543
0.031950045 -0.36943623 -2.0801098
0.031682592 -0.37017402 -2.0797539
0.031098459 -0.3699724 -2.0789108
0.030441962 -0.36954328 -2.0779557
0.029864268 -0.36933658 -2.0771215
0.029600056 -0.37006545 -2.07677
0.029180892 -0.37032336 -2.0761795
0.02876258 -0.37057808 -2.0755901
0.028499352 -0.3713042 -2.07524
0.028005762 -0.37131718 -2.074534
0.027514366 -0.3713282 -2.0738313
0.027252635 -0.37205023 -2.073483
0.02668654 -0.37181258 -2.0726643
0.026261248 -0.37200984 -2.0720627
0.025696198 -0.3717546 -2.071245
0.025436992 -0.37246963 -2.0709
0.024932705 -0.3723927 -2.0701756
0.024367368 -0.37210757 -2.0693564
0.024109988 -0.3728176 -2.0690138
0.02372038 -0.37309235 -2.0684662
0.023166422 -0.3728175 -2.0676634
0.02291048 -0.37352353 -2.0673227
0.02225891 -0.3729032 -2.066368
0.021380806 -0.37150225 -2.0650604
0.021065965 -0.37198722 -2.0646274
0.020813674 -0.37268317 -2.0642917
0.019368112 -0.36927873 -2.0620997
0.018711679 -0.36855203 -2.0611339
0.018464878 -0.36923286 -2.0608056
0.01763286 -0.36786518 -2.0595653
0.86315227 -0.50140643 -3.2834
0.86153996 -0.5058541 -3.2812543
0.83859164 -0.5011787 -3.2480342
0.7918697 -0.48596346 -3.1801748
0.79037493 -0.4900869 -3.1781855
0.77002656 -0.4858289 -3.1487246
0.7488068 -0.48096374 -3.1179852
0.7297494 -0.47685868 -3.090389
0.72835463 -0.48070621 -3.088533
0.7104642 -0.4768427 -3.062626
0.69425625 -0.47358477 -3.0391648
0.6929176 -0.47727767 -3.0373833
0.6765102 -0.47366443 -3.013621
0.66175026 -0.47068352 -2.992256
0.6471166 -0.46760768 -2.9710681
0.6458533 -0.47109264 -2.9693868
0.6313244 -0.4678341 -2.9483428
0.61778456 -0.46492705 -2.928737
0.61656755 -0.4682842 -2.9271173
0.6032919 -0.46529627 -2.9078882
0.588899 -0.46156934 -2.8870215
0.587728 -0.46479955 -2.885463
0.5743658 -0.46139503 -2.866093
0.5626588 -0.45875365 -2.8491359
0.55269873 -0.45695588 -2.8347266
0.5515857 -0.46002638 -2.8332453
0.54010904 -0.45720437 -2.8166127
0.52616733 -0.4528383 -2.7963705
0.52509713 -0.4557906 -2.7949462
0.52188003 -0.45748258 -2.7903814
0.507259 -0.4523819 -2.7691324
0.5062179 -0.45525378 -2.767747
0.48135084 -0.4436919 -2.7314932
0.18659362 -0.2666355 -2.300189
0.16629775 -0.25559744 -2.2705367
0.16588695 -0.25673065 -2.26999
0.16313837 -0.25638857 -2.2660196
0.15912333 -0.25520936 -2.260193
0.15872371 -0.2563117 -2.2596612
0.15640761 -0.25616783 -2.2563214
0.15321538 -0.25542384 -2.2516966
0.15282467 -0.25650164 -2.2511766
0.15045394 -0.25625336 -2.247754
0.14783536 -0.2558117 -2.243967
0.14561921 -0.25561553 -2.240769
0.14524002 -0.25666156 -2.2402642
0.14290799 -0.25634855 -2.2368948
0.14084145 -0.25619614 -2.233914
0.14046924 -0.25722292 -2.2334185
0.13841428 -0.25704503 -2.2304533
0.13636637 -0.25684965 -2.2274973
0.13600063 -0.25785857 -2.2270107
0.13409147 -0.25773138 -2.2242572
0.13206026 -0.25749257 -2.2213237
0.13003664 -0.25723672 -2.2184005
0.12968035 -0.25821954 -2.2179263
0.12779258 -0.25803325 -2.2152014
0.1257854 -0.25773388 -2.2123
0.12543535 -0.2586995 -2.2118344
0.123563245 -0.2584717 -2.2091303
0.12144608 -0.25802878 -2.206065
0.1211025 -0.25897658 -2.2056077
0.11924581 -0.25870615 -2.2029243
0.11726962 -0.25831732 -2.200064
0.1151754 -0.25780863 -2.197029
0.11484152 -0.25872967 -2.1965847
0.112882815 -0.2582964 -2.193748
0.11080514 -0.25773984 -2.190735
0.11047798 -0.25864235 -2.1902997
0.10841293 -0.2580588 -2.187304
0.10647667 -0.2575611 -2.1844969
0.10615623 -0.25844505 -2.1840706
0.10422971 -0.25792062 -2.1812763
0.10255618 -0.2575963 -2.1788545
0.10052051 -0.25692913 -2.1758976
0.10020952 -0.25778702 -2.1754837
0.09879478 -0.2576444 -2.1734414
0.09714138 -0.25726718 -2.1710465
0.09683537 -0.25811136 -2.1706393
0.09543366 -0.25793767 -2.1686146
0.094157964 -0.25786546 -2.1667752
0.093856186 -0.25869796 -2.1663737
0.09246461 -0.2584933 -2.1643622
0.090958476 -0.2581621 -2.1621811
0.08969841 -0.25805032 -2.1603627
0.089403346 -0.25886428 -2.15997
0.08790632 -0.2584974 -2.1578004
0.08641722 -0.25811967 -2.1556418
0.08612713 -0.2589199 -2.1552558
0.08476269 -0.25863948 -2.1532805
0.08328264 -0.25822493 -2.1511335
0.082997285 -0.25901213 -2.1507537
0.08164433 -0.25870016 -2.148794
0.08006034 -0.25813144 -2.146491
0.07859773 -0.25766882 -2.1443675
0.078319855 -0.2584354 -2.1439974
0.07686559 -0.25795308 -2.141885
0.07541599 -0.25745666 -2.1397786
0.07514309 -0.2582095 -2.1394153
0.073817305 -0.25781885 -2.1374915
0.072263606 -0.2571615 -2.1352289
0.07199568 -0.25790057 -2.1348724
0.07068022 -0.25747606 -2.132962
0.069138624 -0.25678104 -2.1307151
0.06748717 -0.25594088 -2.1283047
0.06722724 -0.25665796 -2.1279588
0.065697365 -0.2559219 -2.1257274
0.06411184 -0.25510022 -2.1234126
0.063857526 -0.25580177 -2.123074
0.06211411 -0.25476143 -2.1205235
0.060548432 -0.25390503 -2.1182356
0.05876829 -0.25277144 -2.1156282
0.058523435 -0.25344688 -2.1153023
0.05748894 -0.25317138 -2.1138024
0.0564595 -0.2528883 -2.1123092
0.05621811 -0.2535542 -2.111988
0.056320135 -0.25464267 -2.1121776
0.05620705 -0.25547063 -2.1120477
0.055964615 -0.25613943 -2.1117249
0.056511525 -0.25780052 -2.1125777
0.057612736 -0.2601776 -2.1142566
0.058695886 -0.26255587 -2.1159098
0.058445726 -0.26324597 -2.115577
0.05956771 -0.2657106 -2.117289
0.060304496 -0.2676986 -2.1184282
0.060049023 -0.26840332 -2.1180882
0.060892377 -0.2705593 -2.1193871
0.06129562 -0.27215028 -2.1200304
0.061036162 -0.272866 -2.1196852
0.06110629 -0.27402624 -2.1198318
0.061174262 -0.27518967 -2.1199756
0.061131697 -0.27620816 -2.1199543
0.060870234 -0.2769294 -2.1196063
0.060934264 -0.2781019 -2.1197448
0.060889624 -0.27912888 -2.119721
0.060626917 -0.27985358 -2.1193714
0.0606871 -0.28103516 -2.1195045
0.06074565 -0.2822207 -2.1196356
0.06048145 -0.2829495 -2.119284
0.060644537 -0.2842954 -2.119572
0.060805608 -0.28564677 -2.119857
0.060860403 -0.28685096 -2.1199832
0.06059347 -0.28758734 -2.119628
0.06085457 -0.28910717 -2.1200638
0.06111321 -0.29063395 -2.1204965
0.060843788 -0.29137716 -2.120138
0.060995713 -0.29275823 -2.120411
0.061144635 -0.2941433 -2.1206799
0.060873218 -0.294892 -2.1203187
0.0611245 -0.29644802 -2.1207418
0.06126817 -0.29784745 -2.1210036
0.061513685 -0.2994149 -2.121419
0.06123878 -0.30017322 -2.1210532
0.061480545 -0.30175093 -2.1214633
0.061617766 -0.30317256 -2.1217167
0.06134062 -0.3039371 -2.121348
0.06147487 -0.30536702 -2.1215978
0.06180966 -0.3071322 -2.1221492
0.06153003 -0.30790362 -2.121777
0.061659943 -0.30935052 -2.1220212
0.061888423 -0.31096998 -2.1224139
0.062113285 -0.3125944 -2.1228015
0.06183017 -0.3133754 -2.1224248
0.062150996 -0.31517896 -2.1229577
0.062271085 -0.31665373 -2.1231887
0.061985474 -0.3174416 -2.1228087
0.06220038 -0.3190935 -2.1231833
0.062314067 -0.32058075 -2.1234055
0.06202622 -0.3213748 -2.1230223
0.062334523 -0.32321805 -2.123539
0.062540725 -0.324894 -2.1239016
0.062647864 -0.32640466 -2.1241155
0.06235627 -0.32720903 -2.1237273
0.06255664 -0.3289017 -2.1240826
0.06275458 -0.33060136 -2.1244345
0.0624605 -0.3314126 -2.1240432
0.06265592 -0.33312482 -2.124392
0.06284898 -0.33484408 -2.1247375
0.06255239 -0.33566225 -2.124343
0.06283728 -0.33757117 -2.1248283
0.06302392 -0.3393085 -2.1251655
0.06320686 -0.34105042 -2.1254976
0.062906295 -0.34187955 -2.1250975
0.06327584 -0.343998 -2.1257129
0.063453816 -0.3457619 -2.1260388
0.063150264 -0.34659925 -2.1256347
0.063513525 -0.3487441 -2.1262422
0.063780576 -0.35071564 -2.1267045
0.06347378 -0.35156196 -2.126296
0.063733034 -0.3535393 -2.1267471
0.0638993 -0.35534397 -2.1270578
0.06415245 -0.35733634 -2.1275008
0.06384142 -0.35819435 -2.1270869
0.0640895 -0.3601979 -2.1275227
0.0640577 -0.36163875 -2.127534
0.063744426 -0.36250296 -2.127117
0.06380002 -0.3641372 -2.1272614
0.063668385 -0.3653877 -2.1271212
0.06353178 -0.36663255 -2.1269736
0.063216545 -0.36750218 -2.126554
0.06344517 -0.3695357 -2.1269634
0.06284873 -0.36980698 -2.1261153
0.06253278 -0.37067857 -2.125695
0.061939996 -0.37094653 -2.1248522
0.060993414 -0.37043077 -2.123469
0.060679954 -0.37129548 -2.123052
0.05982468 -0.37095663 -2.1218073
0.059064016 -0.37081435 -2.1207068
0.05812538 -0.37025934 -2.1193335
0.057816405 -0.3711117 -2.1189225
0.056972206 -0.37074542 -2.1176927
0.055954877 -0.36996743 -2.1161976
0.05564938 -0.37081015 -2.1157908
0.054726 -0.3702198 -2.1144385
0.053893406 -0.36982363 -2.113224
0.053591143 -0.37065747 -2.1128218
0.052675948 -0.3700432 -2.1114802
0.051850356 -0.36962405 -2.110275
0.05102896 -0.3691995 -2.109076
0.05073142 -0.37002033 -2.10868
0.049913872 -0.369582 -2.1074858
0.049185738 -0.36934596 -2.1064284
0.048890933 -0.3701592 -2.106036
0.048080593 -0.36970094 -2.1048512
0.047274422 -0.36923736 -2.1036725
0.04698259 -0.3700424 -2.1032841
0.04617971 -0.36956355 -2.1021094
0.045463573 -0.36928818 -2.1010678
0.04466699 -0.368795 -2.0999014
0.044379406 -0.36958835 -2.0995188
0.043670904 -0.3692981 -2.0984874
0.042881534 -0.36878505 -2.0973308
0.042596683 -0.36957085 -2.0969517
0.04189465 -0.36926273 -2.095929
0.041195102 -0.36894777 -2.0949094
0.04091274 -0.3697267 -2.0945337
0.040217612 -0.36940327 -2.0935202
0.03952433 -0.36907127 -2.092509
0.038833555 -0.36873242 -2.0915015
0.038554903 -0.3695011 -2.0911305
0.03786786 -0.36915198 -2.0901277
0.037183292 -0.36879596 -2.089128
0.036907136 -0.36955777 -2.0887606
0.036226306 -0.36919153 -2.0877662
0.03554898 -0.36882123 -2.0867765
0.035275314 -0.36957616 -2.0864122
0.034680977 -0.36942068 -2.0855505
0.034088627 -0.36925966 -2.0846915
0.03349709 -0.3690898 -2.0838332
0.03322641 -0.36983654 -2.083473
0.03255982 -0.36943132 -2.0824974
0.03205213 -0.36947712 -2.0817683
0.03178344 -0.3702183 -2.0814106
0.03120086 -0.3700293 -2.0805647
0.030544093 -0.3696077 -2.0796025
0.030277653 -0.3703427 -2.079248
0.029623004 -0.36990607 -2.0782883
0.029122788 -0.36992398 -2.077569
0.028630428 -0.36995706 -2.0768614
0.0283667 -0.37068456 -2.0765104
0.027950315 -0.37093988 -2.0759213
0.02738208 -0.37071666 -2.0750942
0.027119841 -0.37144008 -2.0747454
0.026705457 -0.3716841 -2.0741584
0.026131077 -0.37141493 -2.0733209
0.025870366 -0.37213415 -2.072974
0.025320567 -0.37192553 -2.0721743
0.024745274 -0.3716231 -2.0713341
0.024390677 -0.37202522 -2.0708394
0.02413229 -0.372738 -2.0704956
0.023570964 -0.37245426 -2.0696764
0.023095401 -0.3724421 -2.0689914
0.022838766 -0.37315005 -2.0686498
0.022275833 -0.37283164 -2.0678267
0.02163392 -0.37223428 -2.0668793
0.021379631 -0.37293577 -2.0665407
0.02044508 -0.37131506 -2.0651314
0.020168647 -0.37192607 -2.0647578
0.01870202 -0.36842257 -2.0625083
0.018454326 -0.36910588 -2.0621786
0.017873844 -0.36862466 -2.0613241
0.016919926 -0.36681414 -2.0598793
0.016675852 -0.36748743 -2.0595546
0.85721517 -0.5032066 -3.2840164
0.8253705 -0.4947486 -3.2375376
0.8238135 -0.49904376 -3.2354655
0.7851335 -0.48707774 -3.1789382
0.76614845 -0.48342818 -3.1512883
0.74451214 -0.478387 -3.119739
0.7430883 -0.48231474 -3.1178443
0.7242698 -0.4782246 -3.0904167
0.70654774 -0.47444516 -3.0645897
0.7051844 -0.47820613 -3.0627754
0.6890366 -0.47489518 -3.0392487
0.67308646 -0.47150722 -3.0160046
0.67177606 -0.475122 -3.0142608
0.6571594 -0.47213796 -2.9929652
0.6426096 -0.46903035 -2.9717615
0.6281983 -0.46583593 -2.9507546
0.62696 -0.46925196 -2.9491065
0.6130094 -0.4660619 -2.928767
0.59972 -0.4630671 -2.9093935
0.59852695 -0.46635833 -2.9078057
0.5846407 -0.46282443 -2.8875444
0.5707929 -0.45915774 -2.8673337
0.5696464 -0.46232045 -2.8658078
0.55858535 -0.45997137 -2.8496888
0.548748 -0.45818865 -2.835366
0.5399312 -0.4568787 -2.8225415
0.53883326 -0.45990726 -2.8210804
0.52735704 -0.45691052 -2.8043323
0.51961505 -0.45597595 -2.7930803
0.5185489 -0.4589171 -2.7916615
0.50139654 -0.4522182 -2.7665358
0.29599288 -0.33131942 -2.4639168
0.29533926 -0.33312252 -2.463047
0.17187431 -0.2590034 -2.281086
0.16478413 -0.25600588 -2.27069
0.16285776 -0.25618133 -2.2679079
0.16245027 -0.25730538 -2.2673655
0.15851219 -0.25615656 -2.2616131
0.15582798 -0.25577745 -2.2577097
0.15543151 -0.25687116 -2.2571821
0.15252636 -0.2563011 -2.2529507
0.15003473 -0.25597522 -2.2493281
0.14964704 -0.25704467 -2.2488122
0.14704219 -0.25660014 -2.2450209
0.14470708 -0.2563123 -2.2416267
0.14250973 -0.2560945 -2.2384353
0.14213353 -0.2571323 -2.2379346
0.14007849 -0.25697908 -2.2349517
0.13790062 -0.25671542 -2.2317865
0.13753115 -0.25773463 -2.2312949
0.13549247 -0.257536 -2.228334
0.13346086 -0.25731993 -2.2253826
0.13309787 -0.2583213 -2.2248993
0.13120468 -0.25817493 -2.2221513
0.12918942 -0.2579152 -2.2192218
0.12718146 -0.25763825 -2.216302
0.12682793 -0.2586135 -2.2158313
0.12495583 -0.25840786 -2.2131114
0.122839205 -0.25798917 -2.2100282
0.12249214 -0.2589466 -2.2095664
0.12063431 -0.25869745 -2.206865
0.11865902 -0.25833237 -2.203989
0.11656507 -0.2578477 -2.2009358
0.11622771 -0.25877833 -2.200487
0.11414426 -0.25826493 -2.1974475
0.11206786 -0.25773233 -2.1944177
0.11173747 -0.25864375 -2.193978
0.10979478 -0.25818697 -2.1911452
0.107736975 -0.25760823 -2.1881404
0.1074133 -0.2585011 -2.1877096
0.105487056 -0.25799903 -2.1848986
0.10368959 -0.25758645 -2.182278
0.10177677 -0.25705 -2.1794848
0.10146255 -0.25791678 -2.1790667
0.09992612 -0.25768358 -2.1768315
0.09815073 -0.2572153 -2.1742404
0.097841986 -0.25806698 -2.1738296
0.096560776 -0.2580216 -2.1719723
0.09504257 -0.2577411 -2.1697614
0.094738305 -0.25858045 -2.1693563
0.09346749 -0.25850618 -2.167513
0.09208096 -0.25830686 -2.1654963
0.09069891 -0.25809518 -2.1634858
0.09040111 -0.25891668 -2.1630895
0.08902474 -0.25868544 -2.1610863
0.08765276 -0.25844178 -2.159089
0.08735944 -0.2592509 -2.1586986
0.08575831 -0.25875294 -2.1563587
0.08416159 -0.25823882 -2.1540244
0.08387375 -0.25903288 -2.1536412
0.082518615 -0.25873488 -2.1516662
0.08093518 -0.25818446 -2.1493495
0.079473905 -0.2577402 -2.1472142
0.07919353 -0.25851366 -2.146841
0.077738635 -0.25804764 -2.1447144
0.076290496 -0.25756976 -2.1425967
0.0760151 -0.25832945 -2.1422303
0.0745742 -0.25783074 -2.1401222
0.07325307 -0.25744316 -2.1381924
0.07298241 -0.25818983 -2.1378322
0.071435824 -0.25752723 -2.135564
0.07001274 -0.25698087 -2.1334798
0.06859291 -0.25641882 -2.1313996
0.068329975 -0.25714418 -2.1310499
0.066801056 -0.2564289 -2.1288052
0.065162696 -0.2555667 -2.1263957
0.064905494 -0.2562762 -2.1260533
0.063334465 -0.2554571 -2.1237433
0.061764948 -0.25461724 -2.1214345
0.06151349 -0.25531092 -2.1210997
0.06001567 -0.25452226 -2.1188972
0.05846909 -0.25365353 -2.1166203
0.05794537 -0.25399646 -2.1158764
0.05770012 -0.254673 -2.11555
0.05717939 -0.25501227 -2.1148102
0.05744686 -0.25631863 -2.1152532
0.05720108 -0.2569966 -2.114926
0.05769063 -0.25859448 -2.115703
0.058560666 -0.26068488 -2.1170523
0.05831075 -0.2613743 -2.1167197
0.059334606 -0.26369157 -2.118301
0.060295716 -0.2659512 -2.1197891
0.061134696 -0.2680747 -2.1210945
0.06087672 -0.26878634 -2.1207511
0.06138645 -0.2705072 -2.1215627
0.06199902 -0.27237839 -2.1225293
0.061737325 -0.2731003 -2.122181
0.06191333 -0.2744098 -2.1224916
0.062085547 -0.2757224 -2.1227968
0.061821863 -0.2764498 -2.122446
0.061775573 -0.27747524 -2.1224227
0.061621245 -0.27835566 -2.1222365
0.061573878 -0.27938682 -2.122212
0.061308928 -0.2801177 -2.1218593
0.0613661 -0.28130242 -2.1219923
0.06131463 -0.28233927 -2.121962
0.061048444 -0.28307357 -2.1216078
0.061207492 -0.28441945 -2.1218956
0.0613665 -0.28577363 -2.1221833
0.061098315 -0.28651342 -2.1218264
0.061147507 -0.28771907 -2.121949
0.061301768 -0.28908628 -2.1222305
0.061558336 -0.2906142 -2.122667
0.061287165 -0.29136223 -2.1223063
0.061436232 -0.29274392 -2.122581
0.06168584 -0.29428682 -2.1230083
0.061412435 -0.29504102 -2.1226442
0.061658334 -0.2965942 -2.1230664
0.061799955 -0.29799658 -2.1233313
0.062042095 -0.2995643 -2.1237485
0.06176521 -0.3003281 -2.1233802
0.061902564 -0.30174646 -2.1236393
0.062138736 -0.30333066 -2.124049
0.061859608 -0.30410066 -2.1236775
0.062091008 -0.30569348 -2.1240804
0.062220957 -0.3071326 -2.1243298
0.061939586 -0.30790877 -2.1239552
0.062166065 -0.3095198 -2.1243517
0.06239113 -0.3111394 -2.1247468
0.06271372 -0.3129325 -2.1252902
0.062428363 -0.3137197 -2.1249104
0.062647015 -0.31535727 -2.1252968
0.06286209 -0.31699994 -2.1256783
0.062574245 -0.31779402 -2.1252952
0.06278556 -0.31944692 -2.1256714
0.0628971 -0.3209382 -2.1258965
0.06260701 -0.32173845 -2.1255105
0.06281346 -0.3234098 -2.1258805
0.06311401 -0.32525855 -2.1263945
0.06331412 -0.32694235 -2.126756
0.06302005 -0.32775357 -2.1263645
0.06312068 -0.32927528 -2.126575
0.063412726 -0.331153 -2.1270778
0.06311616 -0.3319711 -2.1266832
0.06330654 -0.33368278 -2.1270318
0.06349565 -0.3354036 -2.127379
0.0631966 -0.33622855 -2.126981
0.06347871 -0.33814064 -2.127471
0.063660175 -0.33987716 -2.1278076
0.0639366 -0.34180516 -2.12829
0.0636333 -0.34264183 -2.1278863
0.06380986 -0.3443992 -2.1282167
0.06417343 -0.3465294 -2.128834
0.06386714 -0.34737435 -2.1284263
0.064130895 -0.34933403 -2.1288917
0.064486705 -0.35148895 -2.1294987
0.06417717 -0.3523428 -2.129087
0.06452829 -0.35451335 -2.1296878
0.06478021 -0.3565015 -2.1301372
0.06512484 -0.35869104 -2.1307294
0.06481033 -0.35955864 -2.1303108
0.06496071 -0.36137637 -2.130606
0.065107666 -0.36319903 -2.1308966
0.06479067 -0.3640735 -2.1304746
0.06465947 -0.3653349 -2.1303382
0.06433298 -0.3661919 -2.1299016
0.06401551 -0.36706766 -2.1294792
0.06388095 -0.36833158 -2.1293383
0.063739985 -0.36958668 -2.1291873
0.06341638 -0.37045407 -2.1287558
0.06309793 -0.3713325 -2.128332
0.062236264 -0.37102914 -2.1270711
0.06164506 -0.37130308 -2.1262267
0.061328866 -0.37217534 -2.1258059
0.06029455 -0.37145585 -2.124277
0.059353635 -0.37092483 -2.122892
0.059041172 -0.3717868 -2.122476
0.058371633 -0.37184244 -2.1215088
0.05726079 -0.37088528 -2.1198592
0.056331504 -0.3703207 -2.1184895
0.05602401 -0.37116894 -2.1180801
0.05509986 -0.3705897 -2.116717
0.054179724 -0.37000212 -2.1153598
0.05387571 -0.3708408 -2.1149552
0.05304743 -0.3704431 -2.1137385
0.052134946 -0.36983034 -2.1123908
0.051834166 -0.37066007 -2.1119907
0.05101356 -0.37024102 -2.1107843
0.050195906 -0.3698137 -2.109582
0.04938181 -0.36937952 -2.1083846
0.049085516 -0.37019688 -2.1079903
0.048275314 -0.36974895 -2.106798
0.04755349 -0.3695043 -2.1057422
0.047259923 -0.37031415 -2.1053514
0.046456933 -0.3698463 -2.1041684
0.04565692 -0.36937016 -2.1029897
0.04536634 -0.37017176 -2.102603
0.044571374 -0.36968476 -2.101431
0.043862745 -0.36940378 -2.1003928
0.04307292 -0.36889952 -2.0992274
0.042786565 -0.36968946 -2.0988462
0.04200182 -0.3691744 -2.097688
0.04130238 -0.368868 -2.0966618
0.041018765 -0.3696504 -2.0962844
0.040323704 -0.36933538 -2.0952644
0.03963053 -0.36901197 -2.0942466
0.039349396 -0.3697875 -2.0938725
0.03865996 -0.3694538 -2.09286
0.037973 -0.36911324 -2.0918505
0.037288543 -0.36876583 -2.0908444
0.03701115 -0.36953104 -2.0904753
0.03633131 -0.36917582 -2.0894756
0.035653137 -0.36881146 -2.0884778
0.035378225 -0.3695698 -2.088112
0.03478272 -0.36941904 -2.0872433
0.03419121 -0.36926848 -2.0863802
0.03359957 -0.36910632 -2.0855165
0.033327647 -0.36985645 -2.0851545
0.03274005 -0.3696891 -2.0842965
0.03207582 -0.36928633 -2.0833173
0.03180613 -0.37003028 -2.0829585
0.031223865 -0.36984885 -2.0821075
0.030643603 -0.369662 -2.0812593
0.03037591 -0.37040046 -2.080903
0.029721282 -0.36997205 -2.0799365
0.029069372 -0.36953753 -2.078974
0.028497035 -0.36933154 -2.0781362
0.028232822 -0.37006038 -2.0777848
0.027739804 -0.3700821 -2.0770717
0.0273949 -0.3705557 -2.0765924
0.027131693 -0.3712818 -2.076242
0.026647398 -0.37131178 -2.0755417
0.026085822 -0.3710884 -2.0747192
0.025824329 -0.37180975 -2.074371
0.025175847 -0.37128994 -2.0734098
0.02476365 -0.3715173 -2.0728226
0.024277447 -0.37149823 -2.0721176
0.024018494 -0.37221256 -2.071773
0.023522323 -0.372147 -2.0710516
0.022893384 -0.37163255 -2.070119
0.02263648 -0.37234125 -2.069777
0.022154987 -0.37229773 -2.0690777
0.021684814 -0.37228298 -2.0683963
0.021429408 -0.37298754 -2.0680563
0.020780552 -0.37234962 -2.0670896
0.019895637 -0.37088445 -2.0657454
0.019685814 -0.37172467 -2.0654774
0.019433783 -0.3724199 -2.065142
0.017933697 -0.36874932 -2.0628133
0.017371845 -0.36832672 -2.0619817
0.017125253 -0.36900696 -2.0616534
0.01614625 -0.36707678 -2.0601535
0.8538518 -0.5009648 -3.2881784
0.85224116 -0.5054078 -3.286035
0.820562 -0.4968765 -3.239489
0.7820198 -0.4850024 -3.1827912
0.78052884 -0.4891155 -3.180807
0.7616401 -0.4854233 -3.153118
0.740115 -0.4803329 -3.1215236
0.7213616 -0.47628617 -3.0940154
0.7199689 -0.4801279 -3.092162
0.7023373 -0.47630844 -3.0662985
0.68624514 -0.47303456 -3.042703
0.6849084 -0.47672206 -3.0409238
0.66903967 -0.4732981 -3.017647
0.65447325 -0.47034755 -2.9962893
0.6399737 -0.4672735 -2.9750233
0.6387115 -0.47075543 -2.9733434
0.62437403 -0.4675283 -2.9523065
0.61047184 -0.46437055 -2.9319072
0.6092567 -0.46772262 -2.93029
0.5960355 -0.4646977 -2.9108887
0.5821978 -0.46119624 -2.8905673
0.581028 -0.46442318 -2.8890107
0.5672522 -0.46072462 -2.8687706
0.5562293 -0.458401 -2.8526044
0.5464256 -0.4566407 -2.83824
0.5453135 -0.45970857 -2.83676
0.5365406 -0.45837915 -2.8239174
0.52510464 -0.45540923 -2.8071196
0.52402604 -0.4583846 -2.805684
0.5163224 -0.4574331 -2.7944167
0.49923277 -0.45077604 -2.7692132
0.49819666 -0.4536343 -2.7678342
0.2939743 -0.33221275 -2.464736
0.1709912 -0.25841478 -2.2821789
0.16392721 -0.25543472 -2.2717505
0.16351688 -0.25656667 -2.2712045
0.16159932 -0.25673822 -2.2684186
0.1576752 -0.2555987 -2.2626488
0.15727441 -0.25670433 -2.2621155
0.15460357 -0.2563193 -2.2582066
0.1517084 -0.2557559 -2.2539628
0.1513167 -0.2568364 -2.2534413
0.14883745 -0.25650504 -2.249814
0.14624146 -0.25606644 -2.2460117
0.14391418 -0.25578383 -2.2426078
0.14353448 -0.25683123 -2.2421026
0.14134791 -0.25660866 -2.2389069
0.13929963 -0.25645995 -2.2359154
0.13892667 -0.2574888 -2.2354193
0.13675958 -0.25722036 -2.2322497
0.13472767 -0.25702626 -2.2292802
0.13436143 -0.25803652 -2.228793
0.13233982 -0.25781605 -2.2258372
0.13045287 -0.25767383 -2.2230816
0.12844437 -0.2574186 -2.2201436
0.1280876 -0.2584028 -2.2196689
0.12608963 -0.2581214 -2.2167451
0.12422378 -0.25791994 -2.2140174
0.12387324 -0.25888693 -2.2135508
0.121767364 -0.25846353 -2.2104633
0.11991577 -0.25821853 -2.2077541
0.11957169 -0.2591677 -2.2072964
0.1176064 -0.25879818 -2.204416
0.115523204 -0.25830877 -2.2013586
0.11344703 -0.2578002 -2.1983104
0.11311316 -0.25872123 -2.197866
0.11104751 -0.25818387 -2.1948318
0.10911158 -0.2577316 -2.1919906
0.108784415 -0.2586341 -2.1915553
0.10673737 -0.25805062 -2.1885462
0.10481788 -0.257553 -2.1857266
0.10449744 -0.25843698 -2.1853
0.1027092 -0.2580203 -2.1826758
0.10080638 -0.25747943 -2.1798785
0.099275135 -0.25724968 -2.177637
0.0989634 -0.25810963 -2.1772223
0.09719723 -0.25763723 -2.1746273
0.09592018 -0.25759465 -2.1727648
0.09561343 -0.25844085 -2.1723566
0.094102904 -0.25815696 -2.1701427
0.09283625 -0.25808543 -2.168294
0.092533976 -0.2589193 -2.1678917
0.09115435 -0.2587169 -2.1658723
0.08977923 -0.2585022 -2.1638591
0.088407524 -0.25827408 -2.1618502
0.088111974 -0.25908938 -2.1614568
0.08674691 -0.25884265 -2.1594565
0.085151486 -0.25834846 -2.1571095
0.084860906 -0.2591501 -2.1567228
0.08327264 -0.2586322 -2.154385
0.0819222 -0.25833735 -2.152404
0.08163661 -0.25912523 -2.152024
0.080061615 -0.25857106 -2.1497037
0.07860803 -0.2581234 -2.1475656
0.07715834 -0.25766087 -2.1454322
0.07688046 -0.2584274 -2.1450624
0.07544 -0.25794613 -2.142942
0.0740043 -0.25745088 -2.1408274
0.0737314 -0.25820372 -2.140464
0.07241719 -0.25781307 -2.1385317
0.07087633 -0.25715435 -2.1362565
0.070608415 -0.2578934 -2.1358998
0.06919302 -0.25734362 -2.1338124
0.06778088 -0.25677818 -2.1317291
0.06625769 -0.2560667 -2.1294775
0.065997496 -0.2567845 -2.129131
0.06436839 -0.2559182 -2.126718
0.06280334 -0.2551031 -2.1244006
0.06254901 -0.2558047 -2.124062
0.06098838 -0.25496092 -2.1217496
0.05949627 -0.25417608 -2.11954
0.057955664 -0.2533113 -2.1172557
0.057709802 -0.25398955 -2.1169283
0.057187974 -0.25433162 -2.1161838
0.05666852 -0.25467175 -2.1154425
0.056423873 -0.25534663 -2.115117
0.056687832 -0.2566545 -2.1155612
0.057173956 -0.2582501 -2.1163425
0.056926537 -0.25893262 -2.1160133
0.05778886 -0.26102644 -2.1173654
0.05880674 -0.26333973 -2.1189542
0.059762143 -0.26559556 -2.1204493
0.05950664 -0.26630038 -2.1201093
0.060337998 -0.26842725 -2.1214178
0.060844094 -0.27014568 -2.1222336
0.06058438 -0.27086213 -2.1218882
0.061190825 -0.27273604 -2.1228573
0.06136475 -0.27404413 -2.1231706
0.06110205 -0.27476883 -2.1228209
0.061271198 -0.27608278 -2.1231275
0.061223872 -0.27710748 -2.1231053
0.061069015 -0.27798757 -2.1229198
0.060804572 -0.27871704 -2.122568
0.060755655 -0.27974892 -2.122544
0.060811263 -0.2809326 -2.122679
0.060545567 -0.28166553 -2.1223254
0.060492564 -0.28270304 -2.1222959
0.06064954 -0.28404754 -2.122586
0.060382355 -0.28478462 -2.1222303
0.060538284 -0.28614014 -2.1225195
0.060585912 -0.28734472 -2.122644
0.060738087 -0.28871056 -2.1229281
0.060468167 -0.28945518 -2.1225688
0.0607209 -0.29098478 -2.1230068
0.060867872 -0.2923651 -2.123284
0.06059571 -0.29311588 -2.122922
0.06084149 -0.29466045 -2.1233509
0.06108479 -0.29621193 -2.1237762
0.060810145 -0.29696953 -2.1234107
0.06094868 -0.29837328 -2.1236768
0.06118699 -0.2999427 -2.1240957
0.061322253 -0.30135965 -2.1243575
0.06104436 -0.30212623 -2.1239877
0.061276697 -0.30371213 -2.1243987
0.06150552 -0.30530322 -2.1248047
0.06122514 -0.30607668 -2.1244316
0.06135199 -0.30751714 -2.1246824
0.061575882 -0.3091264 -2.1250823
0.06129326 -0.30990604 -2.124706
0.06151447 -0.31152734 -2.1251025
0.06183245 -0.31332248 -2.1256478
0.0620485 -0.31495836 -2.1260374
0.061761905 -0.31574896 -2.125656
0.061973143 -0.31739333 -2.126039
0.062181853 -0.31904453 -2.1264186
0.06189277 -0.319842 -2.1260338
0.062001217 -0.32133466 -2.12626
0.062205058 -0.32300428 -2.1266334
0.061913725 -0.32380795 -2.1262457
0.062209684 -0.32565877 -2.1267614
0.062405936 -0.32734427 -2.1271245
0.06250448 -0.32886457 -2.1273375
0.062209394 -0.32967857 -2.1269448
0.06249685 -0.33155832 -2.1274498
0.06268463 -0.33326823 -2.1278014
0.062386822 -0.3340898 -2.1274052
0.06257208 -0.3358123 -2.1277537
0.06285107 -0.33772227 -2.1282475
0.06255051 -0.3385514 -2.1278474
0.06272813 -0.34028962 -2.128186
0.062999934 -0.34221965 -2.12867
0.06317389 -0.34397534 -2.1290038
0.06286934 -0.34481543 -2.1285985
0.06322753 -0.346948 -2.1292179
0.063488156 -0.34890562 -2.129687
0.06318037 -0.3497547 -2.1292775
0.06353079 -0.35191196 -2.1298869
0.06387826 -0.35408005 -2.1304922
0.06356698 -0.35493875 -2.1300778
0.0638143 -0.35692894 -2.1305292
0.06415353 -0.35912088 -2.1311235
0.06430132 -0.36093685 -2.1314218
0.06398556 -0.3618079 -2.1310017
0.06412869 -0.36363226 -2.1312938
0.06399645 -0.36489296 -2.1311586
0.06367894 -0.36576882 -2.130736
0.06335253 -0.36662576 -2.1302996
0.06321694 -0.367889 -2.1301599
0.06307496 -0.36914343 -2.1300104
0.06275651 -0.3700219 -2.1295867
0.06243295 -0.37088925 -2.1291547
0.061574385 -0.37058797 -2.12789
0.061257437 -0.37146232 -2.1274683
0.060668573 -0.37173522 -2.126623
0.0596384 -0.3710185 -2.1250892
0.0593242 -0.37188527 -2.124671
0.058388658 -0.37135187 -2.1232836
0.057721198 -0.3714089 -2.1223137
0.056615017 -0.37045488 -2.1206584
0.056305796 -0.3713079 -2.120247
0.05538189 -0.37074092 -2.1188748
0.054461367 -0.37016413 -2.1175072
0.054155625 -0.37100756 -2.1171002
0.053240847 -0.37041762 -2.1157408
0.05241568 -0.37002203 -2.1145203
0.05211317 -0.37085655 -2.1141176
0.051206067 -0.3702414 -2.112768
0.05038856 -0.36982444 -2.1115577
0.049574036 -0.3693992 -2.1103516
0.049276244 -0.3702207 -2.1099553
0.048466753 -0.36978447 -2.1087558
0.047659673 -0.3693386 -2.1075597
0.04736487 -0.37015185 -2.1071672
0.04664688 -0.3699055 -2.10611
0.045847014 -0.36943975 -2.1049232
0.045554936 -0.37024546 -2.1045344
0.044759534 -0.36976728 -2.103354
0.043967683 -0.36928236 -2.1021779
0.04326164 -0.36900312 -2.1011364
0.0429738 -0.36979717 -2.1007535
0.04218859 -0.36929086 -2.0995862
0.041406944 -0.36877787 -2.098424
0.041122086 -0.3695637 -2.0980449
0.040426504 -0.3692556 -2.0970173
0.03973402 -0.36894235 -2.095994
0.03945165 -0.3697213 -2.0956182
0.03876232 -0.36939618 -2.094599
0.038075462 -0.3690642 -2.093583
0.037391126 -0.3687254 -2.0925705
0.037112482 -0.36949405 -2.0921998
0.03643186 -0.36914495 -2.0911922
0.035754614 -0.36879143 -2.0901892
0.035478458 -0.36955324 -2.0898218
0.03480412 -0.36918718 -2.0888226
0.034210708 -0.36903778 -2.0879512
0.033936787 -0.3697934 -2.0875866
0.03334834 -0.36964145 -2.0867224
0.032759793 -0.36947793 -2.0858574
0.032174274 -0.369312 -2.0849967
0.031903334 -0.3700594 -2.084636
0.03124295 -0.3696549 -2.0836554
0.030662762 -0.36947483 -2.0828018
0.030394064 -0.37021607 -2.0824442
0.029816879 -0.37002784 -2.0815947
0.029164843 -0.3696012 -2.0806253
0.028898388 -0.3703362 -2.0802705
0.028250314 -0.3699 -2.0793064
0.027681055 -0.36969262 -2.0784676
0.027189586 -0.36971536 -2.0777526
0.026926111 -0.37044218 -2.0774019
0.026582034 -0.3709154 -2.0769222
0.026099259 -0.37094644 -2.0762203
0.025836775 -0.3716705 -2.0758708
0.025278246 -0.37144578 -2.0750468
0.024632454 -0.37092775 -2.0740821
0.024372242 -0.37164557 -2.073736
0.02396161 -0.37187222 -2.073148
0.023477746 -0.3718521 -2.072442
0.022983229 -0.37178767 -2.0717187
0.022725074 -0.37249982 -2.0713751
0.022100002 -0.37198365 -2.0704408
0.021620102 -0.37194118 -2.0697396
0.021363966 -0.37264776 -2.0693989
0.020896051 -0.37263203 -2.0687163
0.020250011 -0.37199602 -2.067746
0.019995954 -0.37269685 -2.0674078
0.019117752 -0.3712287 -2.0660613
0.018907482 -0.3720691 -2.0657933
0.017416455 -0.36840457 -2.0634534
0.017168775 -0.36908782 -2.0631237
0.016610313 -0.36866373 -2.0622907
0.015636683 -0.36673716 -2.060784
0.015392675 -0.36741027 -2.0604594
0.8769625 -0.5045634 -3.3314314
0.8753077 -0.5091284 -3.329229
0.8542372 -0.50544333 -3.2981641
0.81426734 -0.49339893 -3.2389882
0.81271577 -0.49767908 -3.2369232
0.7740068 -0.48553345 -3.1795905
0.75897354 -0.4835625 -3.1574588
0.7346908 -0.47723943 -3.1215563
0.73327136 -0.48115498 -3.1196673
0.7163034 -0.47783726 -3.0946338
0.6984368 -0.4739146 -3.0682533
0.69707537 -0.47767028 -3.0664415
0.6814999 -0.4745636 -3.0434594
0.66575694 -0.47120726 -3.0202196
0.66444755 -0.4748193 -3.018477
0.6494866 -0.47159782 -2.99639
0.6355257 -0.46872002 -2.9757857
0.6217092 -0.46576428 -2.955389
0.62047106 -0.46917996 -2.9537413
0.60664713 -0.4659935 -2.9333227
0.59291524 -0.46270344 -2.913034
0.5917233 -0.4659914 -2.9114478
0.5769705 -0.46191853 -2.8896239
0.56370264 -0.45849463 -2.870009
0.5625583 -0.46165144 -2.868486
0.55208135 -0.45957044 -2.853027
0.54278165 -0.45804182 -2.8393214
0.5353209 -0.45746648 -2.8283572
0.534221 -0.4605006 -2.8268936
0.52511764 -0.4588434 -2.813469
0.51521313 -0.45661098 -2.798842
0.51414484 -0.45955795 -2.7974203
0.4888798 -0.44786388 -2.7598152
0.19465633 -0.27141076 -2.3199184
0.19418783 -0.27270314 -2.319295
0.16850156 -0.25825387 -2.2809377
0.16302651 -0.2562267 -2.2728133
0.16083038 -0.2562233 -2.2695942
0.16042274 -0.25734776 -2.2690516
0.15680645 -0.25638637 -2.263704
0.15389757 -0.25584754 -2.2594137
0.15350087 -0.25694188 -2.2588859
0.15062484 -0.25637567 -2.2546425
0.14828454 -0.25613907 -2.2512007
0.14789635 -0.2572099 -2.250684
0.14531524 -0.25676838 -2.246879
0.14299934 -0.2564822 -2.2434704
0.14082077 -0.25626674 -2.2402668
0.14044407 -0.2573059 -2.2397654
0.1382762 -0.25706166 -2.2365758
0.13624321 -0.25689068 -2.2335875
0.13587323 -0.2579113 -2.2330952
0.13385056 -0.2577139 -2.2301207
0.13183501 -0.25749913 -2.227156
0.13147151 -0.25850186 -2.2266722
0.129467 -0.25826126 -2.2237222
0.12746915 -0.258003 -2.220781
0.12560235 -0.257823 -2.218036
0.12524831 -0.2587996 -2.2175648
0.12326706 -0.2584979 -2.2146459
0.12129118 -0.2581775 -2.211734
0.12094362 -0.25913626 -2.2112715
0.11897744 -0.25878906 -2.2083726
0.11701869 -0.25842476 -2.2054837
0.11481865 -0.25783917 -2.2022302
0.11448129 -0.2587698 -2.2017813
0.112415925 -0.25825652 -2.1987288
0.110357575 -0.25772402 -2.1956856
0.11002719 -0.25863543 -2.195246
0.10797857 -0.25807354 -2.1922157
0.106060766 -0.2575995 -2.1893814
0.1057371 -0.25849238 -2.1889508
0.104071446 -0.25820488 -2.186495
0.10204697 -0.2575791 -2.1834972
0.10039308 -0.25725934 -2.1810572
0.10007836 -0.2581275 -2.1806386
0.098433405 -0.25778577 -2.1782105
0.096793935 -0.25742894 -2.17579
0.09648469 -0.258282 -2.1753783
0.095093824 -0.25812668 -2.1733322
0.093825795 -0.25807023 -2.1714709
0.09352078 -0.2589116 -2.1710649
0.092021346 -0.2586119 -2.1688523
0.090765275 -0.25852802 -2.1670072
0.089275315 -0.25820222 -2.164807
0.08897727 -0.2590244 -2.1644106
0.08761216 -0.25879383 -2.1623983
0.086135425 -0.25843543 -2.160216
0.08584211 -0.25924456 -2.1598258
0.0843718 -0.25886455 -2.1576521
0.082904354 -0.25846866 -2.1554818
0.082616016 -0.25926405 -2.1550982
0.08115715 -0.2588487 -2.1529393
0.07958765 -0.25829905 -2.1506119
0.078139044 -0.25785556 -2.148467
0.07785842 -0.25862968 -2.1480935
0.07630118 -0.2580417 -2.1457822
0.074864835 -0.25756276 -2.1436534
0.07458944 -0.25832245 -2.143287
0.07327654 -0.25794947 -2.1413443
0.07185168 -0.257436 -2.1392305
0.07158101 -0.25818267 -2.1388702
0.07005143 -0.2575233 -2.136596
0.06864007 -0.25697568 -2.1345005
0.067345634 -0.25654128 -2.132582
0.06708244 -0.2572673 -2.1322317
0.065569825 -0.25655547 -2.1299796
0.06394731 -0.25569472 -2.1275594
0.06368986 -0.25640494 -2.1272168
0.06230149 -0.25578442 -2.1251514
0.06080664 -0.25501794 -2.1229227
0.060554422 -0.2557137 -2.122587
0.059181582 -0.25506142 -2.1205428
0.057980344 -0.25459734 -2.1187594
0.058072265 -0.2556948 -2.1189477
0.0578239 -0.25637996 -2.1186173
0.05747487 -0.25694042 -2.118133
0.05789694 -0.25846097 -2.1188262
0.05764729 -0.25914964 -2.1184938
0.058729503 -0.26152378 -2.120196
0.059625115 -0.26368433 -2.1216147
0.059369866 -0.26438847 -2.1212752
0.060426142 -0.26678833 -2.1229408
0.0610406 -0.26863703 -2.123932
0.061435793 -0.2702144 -2.1245883
0.061174076 -0.27093637 -2.12424
0.06166916 -0.27266493 -2.12505
0.061839815 -0.27397317 -2.1253643
0.06157538 -0.27470264 -2.1250124
0.06174124 -0.27601668 -2.1253197
0.0617977 -0.27718928 -2.12546
0.06153152 -0.27792355 -2.1251056
0.06148094 -0.27895695 -2.125082
0.06142704 -0.27998984 -2.1250536
0.061374176 -0.28102833 -2.1250267
0.0611065 -0.28176674 -2.1246705
0.061156984 -0.2829589 -2.124803
0.061204955 -0.2841537 -2.1249316
0.06093578 -0.28489622 -2.1245735
0.06108767 -0.28625172 -2.1248624
0.0611335 -0.28746012 -2.1249888
0.060862582 -0.2882075 -2.124628
0.06100971 -0.28957596 -2.1249106
0.06115484 -0.29094994 -2.1251907
0.06140295 -0.2924875 -2.1256294
0.06112879 -0.29324377 -2.1252646
0.061371274 -0.29478875 -2.1256957
0.061508954 -0.29618332 -2.1259656
0.06123256 -0.29694575 -2.1255977
0.061470028 -0.29850864 -2.1260223
0.06160344 -0.29991916 -2.1262867
0.061836153 -0.30149508 -2.1267052
0.061556287 -0.3022671 -2.1263328
0.06168542 -0.3036936 -2.1265917
0.062013686 -0.30544952 -2.1271589
0.061731324 -0.30622843 -2.1267831
0.061954066 -0.3078318 -2.127188
0.06207356 -0.30927646 -2.1274335
0.06178896 -0.31006157 -2.127055
