ply
format ascii 1.0
element vertex 1348
property float x
property float y
property float z
end_header
-0.09398628 -0.20071344 -0.35390055
-0.09403065 -0.20181641 -0.35320818
-0.09434556 -0.20366053 -0.35380882
-0.09466076 -0.20551272 -0.35440412
-0.094705455 -0.20662387 -0.35370663
-0.095020056 -0.2084853 -0.3542891
-0.09533493 -0.21035469 -0.35486618
-0.09565015 -0.21223226 -0.35543823
-0.09569534 -0.21335562 -0.3547331
-0.09587766 -0.21486753 -0.3546716
-0.09619265 -0.21676067 -0.3552276
-0.096238084 -0.21789014 -0.3545186
-0.09655537 -0.21980064 -0.3550754
-0.096872225 -0.22171712 -0.35562357
-0.09691799 -0.22285475 -0.35490948
-0.09723644 -0.22478665 -0.3554551
-0.097690396 -0.22712226 -0.3566184
-0.098146476 -0.22947487 -0.3577815
-0.09819289 -0.23062882 -0.35705712
-0.09874159 -0.23327233 -0.3586287
-0.09933569 -0.23606426 -0.360395
-0.09938274 -0.23723389 -0.3596608
-0.10002451 -0.24019064 -0.3616234
-0.10053129 -0.24275559 -0.3629612
-0.100578964 -0.24394095 -0.36221713
-0.10126724 -0.24707639 -0.36435467
-0.10177461 -0.24967556 -0.36566526
-0.102188766 -0.25200042 -0.36654764
-0.10223733 -0.2532076 -0.3657899
-0.102649145 -0.25553963 -0.36664882
-0.10255502 -0.25630784 -0.36525345
-0.10260372 -0.2575183 -0.36449364
-0.10241839 -0.25799504 -0.36270082
-0.10214265 -0.25818098 -0.36051542
-0.102191 -0.25938314 -0.3597608
-0.10182425 -0.2592677 -0.35718855
-0.10145728 -0.2591408 -0.35462523
-0.10086145 -0.2582709 -0.35107514
-0.10090894 -0.25945127 -0.3503342
-0.10045092 -0.25900105 -0.3474039
-0.099899426 -0.25823513 -0.34408176
-0.09994625 -0.25939915 -0.3433511
-0.09944052 -0.25875956 -0.34024674
-0.098934226 -0.258104 -0.33715305
-0.0989804 -0.25925177 -0.33643258
-0.098428205 -0.2584234 -0.3331628
-0.09796641 -0.2578795 -0.33029124
-0.09754961 -0.2574724 -0.32762223
-0.09759485 -0.2585971 -0.32691625
-0.097086504 -0.2578654 -0.32387772
-0.0967145 -0.2575785 -0.321425
-0.09675916 -0.25868896 -0.32072794
-0.09634122 -0.25823054 -0.31809795
-0.09596847 -0.25791416 -0.31566703
-0.09601262 -0.25901175 -0.31497806
-0.095547594 -0.2583631 -0.3121793
-0.095174685 -0.25801876 -0.30977303
-0.094800174 -0.25765836 -0.3073698
-0.09484353 -0.25873628 -0.30669317
-0.09446884 -0.2583595 -0.30430377
-0.094047196 -0.25780824 -0.30173215
-0.09409004 -0.25887328 -0.30106363
-0.09371326 -0.25846237 -0.29869038
-0.09329072 -0.25787944 -0.29614142
-0.09291342 -0.25744516 -0.29378593
-0.09295549 -0.2584912 -0.29312932
-0.092578165 -0.25804114 -0.2907882
-0.09219963 -0.25757632 -0.2884518
-0.09224121 -0.25861016 -0.28780285
-0.09190864 -0.25829533 -0.28566393
-0.091529235 -0.25780186 -0.28334764
-0.091570355 -0.25882417 -0.28270593
-0.091190584 -0.25831375 -0.28040257
-0.09080958 -0.25778836 -0.27810395
-0.0904281 -0.25725082 -0.27581298
-0.09046849 -0.25825483 -0.27518275
-0.09008704 -0.25770184 -0.2729064
-0.08979824 -0.25748163 -0.2710001
-0.08983819 -0.2584748 -0.27037665
-0.0894086 -0.25771752 -0.26793683
-0.08907178 -0.2572958 -0.26586547
-0.08911124 -0.25827676 -0.2652497
-0.08877381 -0.25783888 -0.26318872
-0.088389486 -0.25721467 -0.2609569
-0.088004336 -0.25657701 -0.25873145
-0.088043086 -0.25754032 -0.25812677
-0.0876575 -0.25688556 -0.25591397
-0.08731802 -0.25639677 -0.25388488
-0.0873563 -0.25734857 -0.25328743
-0.08696949 -0.25666386 -0.25109327
-0.086629175 -0.2561484 -0.24908268
-0.086666994 -0.2570887 -0.24849246
-0.08632603 -0.25655696 -0.24649212
-0.08598462 -0.2560144 -0.24449857
-0.085689895 -0.25564522 -0.24268621
-0.085727096 -0.25656992 -0.24210577
-0.08538463 -0.2560009 -0.24012882
-0.08504199 -0.2554221 -0.23815969
-0.08507875 -0.25633594 -0.23758605
-0.084735475 -0.25574094 -0.23562714
-0.08439147 -0.25513396 -0.23367403
-0.0844278 -0.25603697 -0.23310721
-0.084130764 -0.25560448 -0.23133628
-0.08378596 -0.25497207 -0.2294007
-0.08344046 -0.2543278 -0.22747095
-0.083476156 -0.2552152 -0.22691391
-0.08317772 -0.25474817 -0.22516468
-0.08287892 -0.2542716 -0.22342141
-0.08291423 -0.2551495 -0.22287033
-0.08261484 -0.2546587 -0.22113599
-0.08231533 -0.25415948 -0.21940853
-0.08235027 -0.25502792 -0.21886341
-0.08200232 -0.25431696 -0.21697716
-0.08174922 -0.2539894 -0.21543048
-0.08144839 -0.253457 -0.2137239
-0.081482746 -0.2543112 -0.2131877
-0.08118108 -0.2537635 -0.21148913
-0.080879025 -0.25320628 -0.20979652
-0.080913 -0.254051 -0.20926628
-0.08061066 -0.25348076 -0.20758355
-0.08035549 -0.2531016 -0.2060692
-0.08038911 -0.25393748 -0.2055445
-0.080085866 -0.2533443 -0.20387632
-0.07978193 -0.25274032 -0.20221306
-0.07952585 -0.2523326 -0.20071846
-0.07955893 -0.25315493 -0.20020226
-0.07930205 -0.25273362 -0.19871423
-0.07899718 -0.25209925 -0.19707212
-0.0790299 -0.2529128 -0.19656144
-0.07877247 -0.2524718 -0.19508767
-0.078514725 -0.25202274 -0.193619
-0.07854712 -0.25282812 -0.19311343
-0.078288876 -0.2523668 -0.1916524
-0.07803031 -0.25189736 -0.1901965
-0.07777105 -0.25141823 -0.18874452
-0.077802956 -0.2522114 -0.18824664
-0.077495374 -0.25150934 -0.18664709
-0.07723564 -0.25101078 -0.1852095
-0.07726719 -0.25179514 -0.18471713
-0.077006966 -0.25128436 -0.18328717
-0.07674681 -0.2507672 -0.18186359
-0.07677803 -0.25154343 -0.18137634
-0.07656532 -0.25122854 -0.18011294
-0.076304376 -0.25069177 -0.17870173
-0.07604314 -0.25014704 -0.17729573
-0.0760739 -0.2509118 -0.17681569
-0.07586017 -0.25057173 -0.17556801
-0.07559858 -0.25000933 -0.1741757
-0.07562904 -0.2507666 -0.17370033
-0.07541458 -0.25040883 -0.17246366
-0.07519981 -0.2500441 -0.17123117
-0.07523 -0.25079462 -0.17076007
-0.07501527 -0.25042176 -0.16953534
-0.07480027 -0.25004214 -0.16831486
-0.074585006 -0.24965578 -0.16709866
-0.074614786 -0.2503961 -0.16663396
-0.07439912 -0.2499996 -0.16542415
-0.0741827 -0.24959412 -0.16421717
-0.0742122 -0.25032765 -0.16375673
-0.07399635 -0.24991651 -0.16255906
-0.07382897 -0.24972653 -0.1615116
-0.07361215 -0.24930046 -0.16032068
-0.07364128 -0.25002453 -0.15986618
-0.07347335 -0.24982041 -0.1588277
-0.07325589 -0.24937814 -0.15764706
-0.07328477 -0.2500961 -0.15719639
-0.07311629 -0.24987791 -0.15616693
-0.072898895 -0.24942276 -0.15499857
-0.07292753 -0.25013465 -0.15455171
-0.07275783 -0.24989913 -0.15352932
-0.07253919 -0.2494249 -0.1523694
-0.07236899 -0.24917766 -0.15135412
-0.07239726 -0.2498807 -0.15091282
-0.072130606 -0.24916187 -0.1496276
-0.07196119 -0.24890643 -0.14862564
-0.0719892 -0.24960274 -0.14818856
-0.07179418 -0.24921645 -0.1471201
-0.071625605 -0.24895397 -0.14613079
-0.07165339 -0.24964455 -0.1456973
-0.07148167 -0.24936028 -0.14470516
-0.07128891 -0.24896854 -0.1436583
-0.07114352 -0.24880451 -0.1427476
-0.07117098 -0.24948701 -0.14231917
-0.07100767 -0.24922894 -0.1413642
-0.07086569 -0.2490721 -0.14047174
-0.070892945 -0.24974972 -0.14004639
-0.07085099 -0.25008377 -0.13943209
-0.07075957 -0.25017035 -0.13868463
-0.07078673 -0.2508454 -0.13826089
-0.07064322 -0.25066787 -0.13737634
-0.07044824 -0.25022897 -0.13635677
-0.07035493 -0.25029537 -0.13561407
-0.070381805 -0.25096348 -0.13519469
-0.070202924 -0.25059476 -0.13422798
-0.06982125 -0.24919754 -0.13272785
-0.06984779 -0.24985734 -0.13231368
-0.069856726 -0.2504279 -0.13185324
-0.31783494 -0.364072 -1.7982328
-0.31802386 -0.36876824 -1.7952849
-0.31610134 -0.37083113 -1.7796271
-0.3142695 -0.37294513 -1.7645718
-0.31179643 -0.37417954 -1.7457296
-0.31198102 -0.37876856 -1.742849
-0.30859852 -0.3786951 -1.7186915
-0.30474484 -0.37789217 -1.6918275
-0.3049246 -0.3823614 -1.6890221
-0.30034688 -0.38039935 -1.6580342
-0.29624647 -0.37894812 -1.6299967
-0.2964205 -0.38327527 -1.6272805
-0.29237998 -0.38171726 -1.5997696
-0.28909183 -0.3810962 -1.5767894
-0.28581473 -0.38038862 -1.553968
-0.28598177 -0.38454124 -1.5513613
-0.2827857 -0.3837988 -1.5291512
-0.2796502 -0.38304636 -1.5073845
-0.27981305 -0.38709465 -1.5048434
-0.2779293 -0.38807377 -1.4904557
-0.2755351 -0.38821968 -1.473175
-0.27569506 -0.392196 -1.470679
-0.2709726 -0.38863578 -1.4401187
-0.26938096 -0.38981125 -1.4276431
-0.25741988 -0.37462577 -1.3558868
-0.25756806 -0.37830982 -1.3535743
-0.12009245 -0.16151528 -0.5675421
-0.11246319 -0.15062355 -0.52287745
-0.1125204 -0.15204582 -0.5219847
-0.11090338 -0.1507129 -0.51162463
-0.10981485 -0.15020883 -0.50429046
-0.108499445 -0.14929168 -0.49570984
-0.10855404 -0.15064892 -0.49485788
-0.10789628 -0.15079261 -0.49001548
-0.106902525 -0.15033853 -0.4833142
-0.10695602 -0.15166847 -0.48247936
-0.10598886 -0.1512156 -0.47596756
-0.10503856 -0.1507631 -0.46957615
-0.105090804 -0.15206175 -0.46876097
-0.104060695 -0.15142317 -0.46196827
-0.10289291 -0.15050526 -0.4544455
-0.101821154 -0.14972706 -0.4474824
-0.10187127 -0.15097287 -0.4467004
-0.10070917 -0.14997976 -0.43928716
-0.099718384 -0.14927097 -0.43284053
-0.0997671 -0.1504821 -0.43208027
-0.098844804 -0.14985834 -0.42604622
-0.097970694 -0.14929876 -0.42029852
-0.098018244 -0.1504808 -0.41955653
-0.097097285 -0.14979148 -0.41359207
-0.09626292 -0.14924331 -0.4081185
-0.09538298 -0.1485809 -0.40242317
-0.09542882 -0.14972037 -0.40170792
-0.09459353 -0.14910759 -0.39628696
-0.09370816 -0.14836967 -0.39062187
-0.093752876 -0.14948142 -0.38992402
-0.09283069 -0.14862953 -0.38409966
-0.09186074 -0.14765288 -0.37804756
-0.091904245 -0.14873436 -0.3773687
-0.09097447 -0.14779837 -0.37156695
-0.09008514 -0.14691961 -0.36600253
-0.08927851 -0.14618859 -0.36089516
-0.08932033 -0.14722809 -0.36024264
-0.08864602 -0.14674322 -0.35585734
-0.08805856 -0.14642456 -0.35194197
-0.088099554 -0.1474436 -0.35130233
-0.08760277 -0.14729555 -0.34788007
-0.08736633 -0.1477012 -0.3458152
-0.08740682 -0.1487079 -0.3451833
-0.08721752 -0.14920631 -0.34337103
-0.08729647 -0.1502954 -0.34293908
-0.087414876 -0.15147392 -0.3427078
-0.0874553 -0.15247889 -0.34207696
-0.08785571 -0.15429991 -0.34327692
-0.08842751 -0.1565217 -0.34533733
-0.08846848 -0.15754013 -0.34469804
-0.0890097 -0.1597132 -0.3465841
-0.08955723 -0.16191457 -0.34848937
-0.08959881 -0.16294819 -0.34784055
-0.08996365 -0.1647412 -0.34881145
-0.09033048 -0.16654769 -0.34978423
-0.09077502 -0.16854769 -0.35113633
-0.090817235 -0.16959715 -0.35047755
-0.09122286 -0.17152005 -0.3516216
-0.09153599 -0.17322926 -0.35229895
-0.091578595 -0.17428824 -0.3516342
-0.091892324 -0.1760099 -0.35230437
-0.092206374 -0.17773968 -0.3529694
-0.0922493 -0.17880678 -0.35229957
-0.092650466 -0.18076397 -0.35338017
-0.09296742 -0.18252048 -0.3540416
-0.093326315 -0.18438967 -0.35490012
-0.09336981 -0.18547097 -0.35422137
-0.09373105 -0.18735884 -0.35507962
-0.09409123 -0.18925248 -0.35592487
-0.094135106 -0.19034326 -0.35524017
-0.094453305 -0.19214141 -0.3558724
-0.09477039 -0.19394395 -0.35649246
-0.09481459 -0.19504288 -0.35580263
-0.09517635 -0.19697337 -0.35662556
-0.095495574 -0.19880037 -0.3572387
-0.095815 -0.20063518 -0.357846
-0.09585973 -0.201747 -0.35714808
-0.09622292 -0.20370969 -0.3579518
-0.09654421 -0.20556833 -0.3585507
-0.09658929 -0.206689 -0.35784724
-0.09695342 -0.20867473 -0.35863653
-0.09727433 -0.21055113 -0.3592164
-0.09731977 -0.2116806 -0.3585074
-0.09768584 -0.21369217 -0.359287
-0.09796069 -0.21545996 -0.3596364
-0.098190896 -0.21710986 -0.35977417
-0.09823676 -0.21825017 -0.35905838
-0.09855915 -0.2201657 -0.35961297
-0.098927 -0.22221652 -0.36036927
-0.09897322 -0.22336568 -0.35964793
-0.09929689 -0.22530352 -0.3601913
-0.09971226 -0.2275105 -0.36114493
-0.09975887 -0.22866917 -0.36041763
-0.10026756 -0.23115948 -0.36178014
-0.10082512 -0.23380327 -0.36335212
-0.10147967 -0.2367423 -0.36534822
-0.10152721 -0.2379242 -0.36460632
-0.102136746 -0.24075483 -0.3663794
-0.10279115 -0.24373224 -0.3683395
-0.10283939 -0.24493128 -0.36758685
-0.103357576 -0.24752727 -0.36892065
-0.10358881 -0.24927872 -0.36897278
-0.103962645 -0.25146237 -0.36965027
-0.10401146 -0.25267574 -0.36888862
-0.10428926 -0.25458154 -0.36913285
-0.10451686 -0.25634077 -0.36915168
-0.104565896 -0.2575601 -0.3683863
-0.10427972 -0.25775287 -0.36616033
-0.104045376 -0.25809643 -0.36416733
-0.10409407 -0.25930676 -0.3634076
-0.103766374 -0.25935003 -0.36102116
-0.1032542 -0.25880936 -0.35784814
-0.10288101 -0.25868893 -0.35528576
-0.1029289 -0.25987944 -0.35453847
-0.10232224 -0.2590071 -0.35099247
-0.101855196 -0.25856 -0.34805706
-0.10190239 -0.25973353 -0.3473204
-0.10134113 -0.2589664 -0.34400335
-0.100826636 -0.25833356 -0.34089816
-0.10087316 -0.25949016 -0.34017214
-0.10035712 -0.25883117 -0.3370799
-0.09984106 -0.2581579 -0.33400056
-0.099370666 -0.25761902 -0.33112514
-0.09941623 -0.2587519 -0.33041403
-0.098944925 -0.25819063 -0.3275527
-0.098473616 -0.25761634 -0.32470313
-0.09851859 -0.2587343 -0.3240014
-0.098046355 -0.25813758 -0.32116586
-0.09762002 -0.25768065 -0.31853092
-0.09766441 -0.25878435 -0.3178381
-0.097284906 -0.25846684 -0.31541097
-0.09685779 -0.25797856 -0.3127992
-0.09647727 -0.25763598 -0.31038773
-0.0965209 -0.25872067 -0.30970687
-0.09613908 -0.25835785 -0.30730462
-0.0957107 -0.2578255 -0.3047242
-0.09575382 -0.25889727 -0.3040514
-0.09537082 -0.25850353 -0.30166906
-0.0949874 -0.25809783 -0.2992947
-0.095030025 -0.25915742 -0.29862958
-0.09459902 -0.25857046 -0.2960803
-0.09421482 -0.25813517 -0.29372737
-0.0938301 -0.2576876 -0.29138204
-0.093871966 -0.2587282 -0.29072884
-0.09348612 -0.2582609 -0.28839338
-0.093100555 -0.25778413 -0.28606865
-0.09314192 -0.25881255 -0.2854231
-0.09275521 -0.25831607 -0.2831083
-0.092320435 -0.25763726 -0.2806161
-0.09236129 -0.2586528 -0.27997863
-0.09197333 -0.25812516 -0.27768344
-0.09163217 -0.25775605 -0.27557817
-0.09129099 -0.2573776 -0.27348125
-0.091331154 -0.25837615 -0.27285445
-0.090941586 -0.2578073 -0.27058536
-0.09055153 -0.2572263 -0.26832396
-0.09059121 -0.25821266 -0.26770478
-0.09020041 -0.25761333 -0.26545486
-0.0899045 -0.25735432 -0.26357287
-0.089943744 -0.25832984 -0.26296052
-0.08950418 -0.25752428 -0.26055014
-0.08911167 -0.25688285 -0.2583265
-0.088766634 -0.25640875 -0.25628963
-0.08880514 -0.257366 -0.25568876
-0.08845945 -0.25687563 -0.25366202
-0.08806527 -0.25619274 -0.2514643
-0.0881033 -0.25713846 -0.25087067
-0.087756485 -0.25662032 -0.24886137
-0.08740923 -0.25609127 -0.24685891
-0.08744683 -0.25702614 -0.24627207
-0.08709893 -0.2564808 -0.24427979
-0.08675086 -0.25592574 -0.24229534
-0.08645003 -0.255544 -0.24049047
-0.08648701 -0.2564633 -0.23991343
-0.0861376 -0.25588068 -0.23794459
-0.085788034 -0.25528836 -0.23598352
-0.08582458 -0.2561968 -0.23541328
-0.08547407 -0.25558707 -0.23346142
-0.08517155 -0.25515696 -0.23168868
-0.08520768 -0.25605524 -0.23112482
-0.08490457 -0.25561085 -0.22936097
-0.08455259 -0.25496453 -0.22743209
-0.08420071 -0.25430948 -0.2255119
-0.08423622 -0.25519213 -0.22495782
-0.083931446 -0.25471213 -0.22321473
-0.08362656 -0.25422367 -0.22147854
-0.08366168 -0.25509688 -0.22093043
-0.0833565 -0.2545953 -0.2192041
-0.08305067 -0.25408313 -0.2174828
-0.082744725 -0.2535626 -0.2157684
-0.08277928 -0.25442156 -0.21522921
-0.08252097 -0.25408378 -0.2136886
-0.082213834 -0.25353912 -0.21198773
-0.08224803 -0.25438926 -0.2114541
-0.081940584 -0.25383148 -0.20976312
-0.081632495 -0.2532631 -0.20807715
-0.081666306 -0.25410372 -0.20754947
-0.08135764 -0.25352105 -0.20587245
-0.081049204 -0.25293148 -0.20420338
-0.080788456 -0.25253332 -0.20270061
-0.08082172 -0.2533604 -0.20218144
-0.08051207 -0.25274655 -0.2005259
-0.08025048 -0.25232738 -0.19903632
-0.08028339 -0.25314564 -0.19852267
-0.08002161 -0.25271556 -0.19704178
-0.079759166 -0.25227585 -0.19556487
-0.079791754 -0.25308597 -0.19505633
-0.079480305 -0.2524269 -0.1934294
-0.07926623 -0.25217688 -0.19212516
-0.07895407 -0.25150016 -0.19050927
-0.07898614 -0.25229743 -0.19000882
-0.07872201 -0.25181624 -0.18855779
-0.07845827 -0.25133005 -0.18711422
-0.07849001 -0.25211918 -0.18661886
-0.07822542 -0.25161922 -0.1851818
-0.0779605 -0.25111112 -0.18374981
-0.07799191 -0.25189212 -0.18325958
-0.07772651 -0.25137186 -0.1818353
-0.07750989 -0.2510593 -0.18057011
-0.077244274 -0.25052524 -0.17915688
-0.077275224 -0.2512947 -0.1786739
-0.07700913 -0.25074852 -0.17726834
-0.07674231 -0.25019243 -0.17586668
-0.07677293 -0.25095376 -0.17538878
-0.076604486 -0.25082672 -0.17429876
-0.076337315 -0.25025353 -0.17291029
-0.07636767 -0.2510081 -0.17243665
-0.07614931 -0.25064436 -0.1712059
-0.075880915 -0.25004956 -0.1698284
-0.07566198 -0.24967161 -0.16860661
-0.0756919 -0.25041533 -0.16813976
-0.075472556 -0.25002724 -0.16692434
-0.07525297 -0.24963239 -0.16571322
-0.07528262 -0.25036934 -0.16525063
-0.07506261 -0.24996439 -0.1640459
-0.07484234 -0.24955265 -0.16284545
-0.07487171 -0.25028282 -0.16238712
-0.07465212 -0.24986593 -0.16119622
-0.07448075 -0.24966623 -0.16015176
-0.074309126 -0.24946094 -0.15911062
-0.07433814 -0.25018227 -0.15865782
-0.074116625 -0.24973832 -0.15747796
-0.073945 -0.24952148 -0.15644744
-0.073973775 -0.25023672 -0.15599847
-0.07375233 -0.24977985 -0.15483089
-0.07353001 -0.2493135 -0.15366587
-0.07355851 -0.250022 -0.15322115
-0.07338531 -0.249779 -0.15220322
-0.07316338 -0.24930125 -0.15105134
-0.07298971 -0.24904671 -0.15004063
-0.07301786 -0.24974641 -0.14960143
-0.072795905 -0.24925543 -0.14846148
-0.072597295 -0.2488704 -0.14739168
-0.07262518 -0.24956366 -0.1469565
-0.072454266 -0.249304 -0.14597023
-0.07228073 -0.24902746 -0.14498068
-0.0723084 -0.24971534 -0.1445489
-0.072109744 -0.249311 -0.14349638
-0.07193981 -0.24904072 -0.1425269
-0.071820065 -0.2490095 -0.14169793
-0.071847424 -0.24968974 -0.14127094
-0.07170015 -0.24951965 -0.1403719
-0.071659915 -0.24986817 -0.13976458
-0.07168715 -0.25054517 -0.13933963
-0.07161859 -0.25075266 -0.13865858
-0.07144898 -0.2504618 -0.13771027
-0.07147606 -0.2511349 -0.13728775
-0.07127677 -0.25069132 -0.13626678
-0.07118711 -0.25078487 -0.13553898
-0.07104768 -0.2506293 -0.13468283
-0.07107448 -0.25129563 -0.13426459
-0.070695624 -0.2499434 -0.13278964
-0.070695445 -0.25047088 -0.13230535
-0.07072202 -0.25113142 -0.13189071
-0.32346517 -0.36642864 -1.7971271
-0.321504 -0.36850816 -1.7814564
-0.31963518 -0.370638 -1.7663885
-0.31982145 -0.375269 -1.7634815
-0.31729808 -0.37648243 -1.7446493
-0.31385043 -0.37643695 -1.7204697
-0.31403276 -0.3809697 -1.7176244
-0.31010285 -0.38013494 -1.6907753
-0.3054384 -0.3782102 -1.659758
-0.3056152 -0.38260454 -1.6569996
-0.30143413 -0.3811196 -1.628978
-0.29731685 -0.37959456 -1.6014411
-0.29396585 -0.37900054 -1.5784396
-0.29413506 -0.38320717 -1.575799
-0.29079318 -0.3824725 -1.5529903
-0.28753605 -0.3817563 -1.5307596
-0.28770098 -0.38585627 -1.528186
-0.28450352 -0.38507786 -1.5064315
-0.28258273 -0.3860729 -1.4920313
-0.28274426 -0.3900892 -1.4895102
-0.28030217 -0.39021507 -1.4722389
-0.27549148 -0.38669282 -1.4416486
-0.27386826 -0.38788185 -1.4291624
-0.27402404 -0.39175475 -1.4267313
-0.26183653 -0.3764745 -1.3550196
-0.12187897 -0.16074713 -0.56814694
-0.121941 -0.16228905 -0.5671791
-0.1141683 -0.15133727 -0.52254266
-0.11252114 -0.15001732 -0.51217234
-0.112577304 -0.15141357 -0.5112959
-0.111467466 -0.15090059 -0.503966
-0.11012658 -0.14997277 -0.4953903
-0.10945602 -0.15012196 -0.49054357
-0.10951017 -0.15146814 -0.48969856
-0.108496964 -0.15100591 -0.4830011
-0.107511505 -0.1505609 -0.4764831
-0.107564375 -0.1518751 -0.47565818
-0.106595494 -0.15141478 -0.4692704
-0.105546 -0.15078454 -0.46247116
-0.10559757 -0.15206647 -0.46166646
-0.10440724 -0.15113913 -0.45414814
-0.10331473 -0.15035222 -0.44718912
-0.10213098 -0.14936839 -0.43976858
-0.10218035 -0.15059556 -0.43899825
-0.10117037 -0.14987873 -0.4325554
-0.10023078 -0.1492624 -0.4265155
-0.1002789 -0.15045863 -0.4257646
-0.0993878 -0.14989193 -0.42002022
-0.09844964 -0.14921 -0.41404995
-0.098496586 -0.1503772 -0.4133173
-0.097646005 -0.14982224 -0.4078469
-0.09674906 -0.1491527 -0.40215492
-0.09589814 -0.14854662 -0.3967287
-0.09594343 -0.14967261 -0.39602187
-0.09504099 -0.14892755 -0.39036015
-0.09410169 -0.14808302 -0.38453
-0.09414581 -0.14918001 -0.38384143
-0.09315731 -0.14819558 -0.37779295
-0.09221033 -0.14726698 -0.3719854
-0.09225324 -0.14833364 -0.37131584
-0.09134688 -0.14744774 -0.36575475
-0.090524755 -0.14671023 -0.36065042
-0.08983781 -0.14623077 -0.35626087
-0.089879185 -0.1472594 -0.35561517
-0.08928027 -0.14693594 -0.3517021
-0.08877403 -0.14679195 -0.34827662
-0.0888147 -0.14780283 -0.3476421
-0.08857321 -0.14820637 -0.34557822
-0.088379875 -0.14870653 -0.3437646
-0.08842023 -0.14970972 -0.34313488
-0.088499874 -0.15079913 -0.34270278
-0.088619694 -0.15197824 -0.3424712
-0.089026414 -0.15379654 -0.3436733
-0.08906706 -0.15480696 -0.34303904
-0.089648485 -0.15703276 -0.34509757
-0.09019846 -0.15920207 -0.3469866
-0.090239726 -0.16022804 -0.34634256
-0.0907964 -0.16243325 -0.34824604
-0.09116689 -0.16422383 -0.34921885
-0.09153938 -0.16602787 -0.35019353
-0.09158136 -0.16707127 -0.34953856
-0.09203316 -0.16907433 -0.35088924
-0.09244512 -0.17099452 -0.35203543
-0.09248755 -0.17204942 -0.35137326
-0.092805564 -0.17376068 -0.35204962
-0.09312401 -0.1754803 -0.3527214
-0.09316677 -0.17654334 -0.3520541
-0.09348569 -0.17827517 -0.3527182
-0.093893066 -0.18022968 -0.3538009
-0.094214775 -0.18198414 -0.35446393
-0.09425808 -0.18306072 -0.35378814
-0.094622634 -0.18493228 -0.35464555
-0.094989374 -0.1868178 -0.35550565
-0.095033064 -0.18790382 -0.35482395
-0.095398895 -0.18979985 -0.35566807
-0.095721856 -0.19159597 -0.3563019
-0.095765896 -0.19269082 -0.35561463
-0.09608785 -0.19449542 -0.35623375
-0.096455075 -0.19642353 -0.35705853
-0.096779056 -0.19824852 -0.35767326
-0.09682362 -0.19935626 -0.3569779
-0.097147934 -0.20119311 -0.35758424
-0.097516604 -0.20315345 -0.3583898
-0.097561516 -0.20427 -0.35768893
-0.09788773 -0.2061307 -0.35828686
-0.09825733 -0.20811409 -0.359078
-0.0983026 -0.20923947 -0.3583716
-0.09862842 -0.21111792 -0.35895047
-0.098999985 -0.21312712 -0.35973194
-0.099278755 -0.21489322 -0.3600827
-0.09932452 -0.21603084 -0.3593686
-0.099557996 -0.21768208 -0.35950574
-0.099885106 -0.21959557 -0.3600619
-0.099931136 -0.22073999 -0.35934356
-0.10030467 -0.22279318 -0.36009872
-0.100633085 -0.22472899 -0.36064368
-0.10067947 -0.22588225 -0.3599198
-0.101101354 -0.22809193 -0.36087215
-0.101617925 -0.23057885 -0.36223736
-0.10218418 -0.23321891 -0.36381227
-0.10223137 -0.2343919 -0.36307597
-0.10289661 -0.2373354 -0.36507
-0.103515685 -0.24016191 -0.36684632
-0.10356356 -0.24135208 -0.36609924
-0.10422864 -0.24433394 -0.36805722
-0.10475481 -0.24692649 -0.36939374
-0.10480332 -0.24813242 -0.36863676
-0.10503777 -0.24988522 -0.36868823
-0.10541731 -0.25207126 -0.36936462
-0.10569899 -0.25397542 -0.36961013
-0.10574792 -0.25519213 -0.3688464
-0.10597863 -0.25695267 -0.36886463
-0.105686806 -0.25714788 -0.36663672
-0.10573565 -0.25836232 -0.3658744
-0.10549636 -0.2587038 -0.3638824
-0.105162345 -0.25874984 -0.3614938
-0.1052108 -0.25995466 -0.3607375
-0.10468882 -0.25940987 -0.35756642
-0.1043083 -0.25928634 -0.3550055
-0.10369062 -0.25841874 -0.35145578
-0.10373812 -0.25959978 -0.35071442
-0.103262104 -0.2591489 -0.3477808
-0.10269062 -0.25838614 -0.34446025
-0.10273747 -0.25955087 -0.34372917
-0.10221323 -0.258914 -0.34062585
-0.10168775 -0.25825906 -0.3375304
-0.101733945 -0.2594075 -0.33680955
-0.10120813 -0.25873014 -0.33373207
-0.10072879 -0.25818753 -0.3308584
-0.100248836 -0.25763 -0.32799417
-0.100294106 -0.25875536 -0.32728773
-0.099813856 -0.25817734 -0.32443994
-0.09933299 -0.25758436 -0.32160148
-0.099377654 -0.25869486 -0.32090443
-0.09894317 -0.25823453 -0.31827107
-0.0985566 -0.25792006 -0.31584153
-0.09860075 -0.25901765 -0.31515256
-0.098165505 -0.25852597 -0.31254238
-0.09777767 -0.2581803 -0.31013238
-0.09738878 -0.25782052 -0.30772775
-0.09743217 -0.25889912 -0.3070507
-0.096995674 -0.25836334 -0.30447185
-0.09660559 -0.25797263 -0.3020871
-0.09664846 -0.25903833 -0.30141816
-0.096257724 -0.25862953 -0.29904523
-0.09581887 -0.25804597 -0.29649332
-0.09542759 -0.25761372 -0.29413798
-0.09546969 -0.25866044 -0.29348096
-0.09507767 -0.2582098 -0.29113704
-0.094684735 -0.25774553 -0.28879923
-0.094726354 -0.25878003 -0.28814983
-0.094333485 -0.25830022 -0.28582653
-0.093939714 -0.25780678 -0.2835093
-0.093980834 -0.2588291 -0.2828676
-0.09353793 -0.25814688 -0.280377
-0.09314289 -0.25762227 -0.27807942
-0.09279546 -0.2572559 -0.275972
-0.09283585 -0.25825992 -0.27534178
-0.092488155 -0.2578787 -0.27324617
-0.092091516 -0.2573129 -0.2709747
-0.092131436 -0.2583054 -0.2703517
-0.09173407 -0.25772128 -0.26809174
-0.0913362 -0.257125 -0.26583943
-0.091375634 -0.25810528 -0.26522407
-0.09107404 -0.25784385 -0.26334321
-0.09062662 -0.2570417 -0.26093018
-0.09022704 -0.25640327 -0.25870416
-0.09026576 -0.2573659 -0.25809988
-0.089914225 -0.25688913 -0.25606427
-0.08956224 -0.25640145 -0.25403538
-0.089600526 -0.25735325 -0.25343794
-0.089199044 -0.25666735 -0.25124165
-0.08884594 -0.25615188 -0.24923024
-0.08888376 -0.25709215 -0.24864002
-0.088530004 -0.25656042 -0.2466388
-0.0881758 -0.2560178 -0.24464439
-0.08782145 -0.2554654 -0.24265783
-0.08785862 -0.25638944 -0.2420778
-0.087552115 -0.25600535 -0.24027404
-0.08719642 -0.25542545 -0.23830307
-0.08723318 -0.2563393 -0.23772943
-0.086877115 -0.25574422 -0.23576964
-0.08652032 -0.2551372 -0.23381567
-0.08655665 -0.25604022 -0.23324883
-0.086248435 -0.25560775 -0.2314772
-0.08593983 -0.25516573 -0.22971149
-0.08558156 -0.25452211 -0.22778048
-0.08561728 -0.25541016 -0.22722301
-0.085258916 -0.25475243 -0.22530408
-0.084948644 -0.2542748 -0.22355913
-0.08498396 -0.2551527 -0.22300805
-0.08467338 -0.2546619 -0.22127296
-0.08436271 -0.25416267 -0.21954478
-0.084397644 -0.2550311 -0.21899965
-0.08408612 -0.25451657 -0.21727946
-0.083774485 -0.25399366 -0.21556617
-0.08351146 -0.2536579 -0.21402395
-0.08354584 -0.2545128 -0.21348733
-0.08323302 -0.25396574 -0.21178758
-0.08292009 -0.2534103 -0.21009476
-0.0829541 -0.2542557 -0.20956409
-0.08264031 -0.25368494 -0.20787923
-0.082326144 -0.25310466 -0.20620035
-0.08235977 -0.25394055 -0.20567565
-0.082045645 -0.25334856 -0.2040077
-0.08178003 -0.25294837 -0.2025059
-0.08146488 -0.2523369 -0.20084849
-0.08149796 -0.25315925 -0.20033228
-0.081231475 -0.252738 -0.19884367
-0.08096499 -0.25230992 -0.19736119
-0.08099774 -0.25312415 -0.19685009
-0.08073041 -0.2526824 -0.19537415
-0.080413476 -0.25202566 -0.19374533
-0.08044587 -0.25283107 -0.19323978
-0.080227725 -0.25257933 -0.19193634
-0.07990988 -0.25190026 -0.19032156
-0.07964103 -0.2514211 -0.18886895
-0.07967293 -0.25221428 -0.18837106
-0.079404324 -0.25172606 -0.18692844
-0.079135016 -0.25122812 -0.18548977
-0.0791666 -0.2520132 -0.18499698
-0.0788968 -0.25150305 -0.18356594
-0.07862669 -0.25098482 -0.18214007
-0.07865794 -0.25176173 -0.18165237
-0.078437254 -0.25144747 -0.18038799
-0.07816677 -0.25091138 -0.17897575
-0.07789596 -0.2503672 -0.1775686
-0.07792675 -0.2511326 -0.17708814
-0.07765505 -0.2505745 -0.17568745
-0.07748345 -0.2504488 -0.17459635
-0.07751397 -0.2512074 -0.17412016
-0.077241935 -0.25063217 -0.17273265
-0.07701965 -0.25027016 -0.17150056
-0.07704986 -0.25102133 -0.17102905
-0.07677658 -0.25042444 -0.16965252
-0.07655359 -0.25004482 -0.16843152
-0.076330334 -0.24965842 -0.16721475
-0.076360114 -0.25039873 -0.16675006
-0.076136455 -0.2500022 -0.16553971
-0.07591253 -0.24959895 -0.16433366
-0.07594203 -0.25033247 -0.16387321
-0.07571771 -0.24991907 -0.16267355
-0.0754942 -0.24950387 -0.16148134
-0.075319685 -0.24930552 -0.16043581
-0.07534881 -0.2500296 -0.1599813
-0.075173914 -0.24982293 -0.15894079
-0.074948475 -0.24938065 -0.1577596
-0.07497735 -0.2500986 -0.15730894
-0.07480249 -0.2498804 -0.15627906
-0.07457712 -0.2494252 -0.15511015
-0.07460576 -0.2501371 -0.1546633
-0.07437939 -0.24966903 -0.15349908
-0.07420304 -0.24942742 -0.15248008
-0.07397721 -0.24895136 -0.15132686
-0.07400546 -0.24965374 -0.15088597
-0.073828526 -0.24939784 -0.1498759
-0.07360268 -0.24890855 -0.14873464
-0.07363069 -0.24960487 -0.14829755
-0.07342842 -0.2492183 -0.14722846
-0.073254414 -0.24895996 -0.14624113
-0.07328219 -0.24965054 -0.14580764
-0.07310542 -0.24937268 -0.14481874
-0.07290324 -0.24896981 -0.14376503
-0.07273024 -0.24870087 -0.1427945
-0.07275769 -0.24938309 -0.14236628
-0.07263558 -0.24935088 -0.14153779
-0.07248559 -0.24918193 -0.14063783
-0.07251286 -0.24985985 -0.1402123
-0.072471544 -0.2502079 -0.1396052
-0.07240151 -0.25041604 -0.13892365
-0.07242869 -0.25109175 -0.1384995
-0.07225593 -0.2507996 -0.1375518
-0.07205314 -0.2503575 -0.13652964
-0.071961686 -0.25045183 -0.13580123
-0.071988575 -0.25112036 -0.13538158
-0.07184649 -0.2509637 -0.13452597
-0.07146138 -0.24961415 -0.1330489
-0.07148796 -0.25027505 -0.13263406
-0.07148737 -0.25080234 -0.13214983
-0.32957366 -0.3648719 -1.8028603
-0.329763 -0.36957833 -1.7999059
-0.32773337 -0.37161657 -1.7840688
-0.3258369 -0.37375253 -1.7690616
-0.3230863 -0.37477633 -1.7491721
-0.32327116 -0.3793725 -1.746287
-0.31965098 -0.37917316 -1.7215097
-0.31542453 -0.37809122 -1.6933516
-0.31560442 -0.38256267 -1.6905448
-0.31099093 -0.38078573 -1.6603473
-0.30665624 -0.37923858 -1.631864
-0.30683044 -0.38356894 -1.6291457
-0.30260348 -0.3819727 -1.6014493
-0.29919654 -0.38136652 -1.5785104
-0.2956922 -0.38052407 -1.5551137
-0.2958593 -0.384678 -1.5525062
-0.29289934 -0.38444245 -1.5323133
-0.28989676 -0.38405737 -1.5119617
-0.29006 -0.38811624 -1.509414
-0.28752112 -0.3882667 -1.4917744
-0.28583208 -0.38958174 -1.4789399
-0.28599256 -0.393572 -1.4764352
-0.28145725 -0.39057052 -1.4478848
-0.27874938 -0.39018303 -1.4295675
-0.27481544 -0.3878544 -1.4045541
-0.2749689 -0.39166936 -1.4021593
-0.13835938 -0.18413273 -0.6481923
-0.11608521 -0.15104817 -0.5245753
-0.11614258 -0.15247448 -0.52368
-0.114040084 -0.1504719 -0.51099765
-0.11316355 -0.15037218 -0.505045
-0.11174182 -0.14936556 -0.49615452
-0.11179643 -0.15072344 -0.49530214
-0.11105705 -0.15077631 -0.49015692
-0.109989226 -0.15026262 -0.4832601
-0.11004269 -0.15159185 -0.48242572
-0.10911949 -0.15127505 -0.47634783
-0.10817265 -0.15089092 -0.4701679
-0.10822492 -0.15219064 -0.46935204
-0.10715275 -0.15154845 -0.46254167
-0.105913445 -0.15058413 -0.4548706
-0.10479985 -0.14980467 -0.4478988
-0.10484998 -0.1510511 -0.4471164
-0.1036883 -0.15013766 -0.43993434
-0.10265912 -0.14942881 -0.43348062
-0.10270789 -0.15064122 -0.43271956
-0.10166966 -0.14987133 -0.42625877
-0.10080501 -0.14939052 -0.42073292
-0.10085259 -0.15057325 -0.41999048
-0.099939905 -0.14996532 -0.41424865
-0.0990283 -0.1493331 -0.40853617
-0.09811508 -0.14867163 -0.402839
-0.098160945 -0.14981177 -0.40212333
-0.097291544 -0.14919512 -0.39668775
-0.09633157 -0.1483784 -0.39080873
-0.096376285 -0.14949018 -0.39011085
-0.09541687 -0.14863357 -0.3842719
-0.094456434 -0.14774768 -0.37845236
-0.09449996 -0.14882985 -0.37777305
-0.0935788 -0.14798167 -0.3721901
-0.092656225 -0.14710459 -0.3666236
-0.09182188 -0.14638032 -0.36152703
-0.091863744 -0.1474212 -0.36087367
-0.091166094 -0.14694235 -0.35649732
-0.090644404 -0.14680758 -0.35302278
-0.0906855 -0.14782932 -0.35238144
-0.09016964 -0.14768407 -0.34895653
-0.090201765 -0.14867939 -0.34827712
-0.09024253 -0.14969285 -0.34764096
-0.090089515 -0.15029249 -0.3460434
-0.09039551 -0.15187332 -0.34672228
-0.09074684 -0.15355925 -0.34761858
-0.090787835 -0.15457828 -0.3469789
-0.09133753 -0.15671086 -0.3488385
-0.09208194 -0.15928572 -0.35164014
-0.09212364 -0.16032246 -0.35098934
-0.09264552 -0.16242942 -0.35268041
-0.09321403 -0.16465363 -0.3545867
-0.09325632 -0.16570501 -0.35392672
-0.09363406 -0.16751741 -0.35489067
-0.09405679 -0.16944128 -0.3560638
-0.09437854 -0.17114347 -0.3567415
-0.09442142 -0.17220935 -0.35607243
-0.09474418 -0.17392491 -0.35674495
-0.09506714 -0.17564827 -0.3574117
-0.09511034 -0.17672227 -0.35673755
-0.09543101 -0.17845124 -0.3573834
-0.09575261 -0.18018974 -0.35802725
-0.09579614 -0.18127178 -0.35734802
-0.09612077 -0.18302846 -0.3579962
-0.09649047 -0.18490122 -0.35885003
-0.09686084 -0.18678413 -0.35969928
-0.09690491 -0.18787967 -0.3590116
-0.09723291 -0.18967144 -0.3596513
-0.09760434 -0.19157764 -0.36048678
-0.09764876 -0.192682 -0.35979357
-0.09797737 -0.19449423 -0.3604188
-0.09830289 -0.19630615 -0.3610232
-0.09834764 -0.19741865 -0.36032486
-0.09867696 -0.19925104 -0.3609368
-0.09900643 -0.20109119 -0.36154282
-0.09938174 -0.20305583 -0.36235216
-0.09942701 -0.20418122 -0.36164573
-0.09980294 -0.2061602 -0.36244637
-0.10013323 -0.2080293 -0.36303186
-0.10017886 -0.20916355 -0.3623199
-0.10055567 -0.21116547 -0.36310586
-0.10093175 -0.21317394 -0.36388084
-0.10097775 -0.21431765 -0.3631629
-0.1012629 -0.21609707 -0.36351833
-0.10159362 -0.21800433 -0.36407223
-0.101877354 -0.21979271 -0.3644097
-0.1019238 -0.22094728 -0.36368492
-0.10230417 -0.22300659 -0.36444357
-0.10268525 -0.22507627 -0.36519757
-0.10273207 -0.22624038 -0.36446685
-0.103113055 -0.22832257 -0.365209
-0.103591636 -0.23068254 -0.36637247
-0.1036389 -0.23185754 -0.36563492
-0.1042609 -0.23463334 -0.36741084
-0.10488458 -0.23742835 -0.36918095
-0.105655685 -0.2406522 -0.3715793
-0.10570401 -0.24185383 -0.370825
-0.10629067 -0.24458195 -0.3724004
-0.10687688 -0.2473223 -0.3739616
-0.10692583 -0.2485392 -0.37319773
-0.10731526 -0.2507344 -0.3738958
-0.107453525 -0.25221333 -0.3735106
-0.10782845 -0.25438032 -0.37413406
-0.107877836 -0.2556079 -0.3733635
-0.10782339 -0.256532 -0.3721519
-0.10757775 -0.2568922 -0.37013245
-0.10762691 -0.25811416 -0.36936542
-0.107429005 -0.25860468 -0.36755717
-0.10694439 -0.2582367 -0.36454928
-0.1069931 -0.25944766 -0.36378914
-0.1066537 -0.25949505 -0.36140627
-0.106121115 -0.25895146 -0.3582267
-0.10563772 -0.25854212 -0.3552646
-0.105685584 -0.25973192 -0.35451773
-0.10510576 -0.25900906 -0.35117456
-0.104525335 -0.25826895 -0.347843
-0.1045725 -0.25944114 -0.3471072
-0.10403873 -0.25882173 -0.343988
-0.10355215 -0.25833407 -0.3410747
-0.10359867 -0.25949067 -0.3403487
-0.10306407 -0.2588336 -0.33725777
-0.10252941 -0.25816214 -0.33417955
-0.10208987 -0.25777566 -0.33149907
-0.102135465 -0.2589092 -0.33078754
-0.10164718 -0.25835043 -0.32792702
-0.10115772 -0.25777492 -0.32507345
-0.10120271 -0.25889355 -0.32437128
-0.10076096 -0.25845146 -0.32172588
-0.10031863 -0.25799575 -0.31908888
-0.10036308 -0.2591008 -0.31839523
-0.09992115 -0.25862867 -0.31577587
-0.09947807 -0.25814104 -0.3131626
-0.09908255 -0.257797 -0.31074724
-0.09912621 -0.25888237 -0.31006593
-0.09873062 -0.25852218 -0.3076647
-0.09833457 -0.2581499 -0.3052712
-0.09837774 -0.259223 -0.30459756
-0.09797981 -0.25882864 -0.30221114
-0.09753423 -0.2582646 -0.29964986
-0.09757689 -0.25932488 -0.29898432
-0.097130425 -0.25874022 -0.29643545
-0.096731395 -0.258304 -0.2940793
-0.096283324 -0.2576911 -0.29154497
-0.09632518 -0.25873172 -0.29089177
-0.095925346 -0.25826585 -0.28855696
-0.095476344 -0.25762108 -0.28604499
-0.09551769 -0.2586488 -0.28539985
-0.09511617 -0.25815028 -0.283083
-0.09471458 -0.25764093 -0.28077537
-0.09475543 -0.25865647 -0.2801379
-0.09440195 -0.2582989 -0.27802458
-0.09404844 -0.25793195 -0.27591962
-0.09364522 -0.25738138 -0.27363807
-0.09368539 -0.25837997 -0.27301127
-0.09328144 -0.2578111 -0.27074122
-0.092877 -0.25723004 -0.26847887
-0.092916675 -0.25821644 -0.2678597
-0.0925115 -0.25761706 -0.2656088
-0.09215527 -0.25718233 -0.2635464
-0.09219448 -0.2581572 -0.26293448
-0.09183729 -0.25770503 -0.26088113
-0.09138118 -0.25688642 -0.2584776
-0.090974085 -0.25623378 -0.25626174
-0.09101257 -0.25719035 -0.2556613
-0.09065405 -0.25669926 -0.2536341
-0.0902948 -0.25619623 -0.2516127
-0.090332836 -0.25714195 -0.25101903
-0.08997324 -0.25662374 -0.2490089
-0.08961319 -0.25609463 -0.24700554
-0.089650795 -0.2570295 -0.2464187
-0.08929009 -0.25648418 -0.24442557
-0.088978484 -0.2561126 -0.2426136
-0.088617235 -0.25554734 -0.24063468
-0.08865421 -0.25646663 -0.24005763
-0.088292025 -0.25588405 -0.23808795
-0.08792968 -0.25529164 -0.23612604
-0.087966226 -0.2562001 -0.23555578
-0.08765291 -0.2557801 -0.2337759
-0.08728921 -0.2551602 -0.23182957
-0.087325335 -0.25605848 -0.23126571
-0.08701105 -0.2556141 -0.22950114
-0.086646564 -0.25496882 -0.22757234
-0.08633147 -0.25450474 -0.22582008
-0.086367 -0.2553881 -0.22526559
-0.086051345 -0.2549098 -0.22352226
-0.0857353 -0.25442207 -0.22178492
-0.08577045 -0.25529593 -0.22123638
-0.08545384 -0.25479388 -0.21950792
-0.085086845 -0.2540863 -0.21761829
-0.08481945 -0.25376138 -0.21606894
-0.08485403 -0.254621 -0.21552934
-0.084536366 -0.2540869 -0.21382272
-0.08421832 -0.25354335 -0.21212205
-0.08425252 -0.2543935 -0.2115884
-0.08393362 -0.25383455 -0.20989574
-0.08361435 -0.25326616 -0.20820904
-0.08364816 -0.25410682 -0.20768136
-0.083378814 -0.25372744 -0.20616785
-0.08305892 -0.25313723 -0.20449662
-0.08278893 -0.25274098 -0.2029938
-0.082822226 -0.25356874 -0.2024742
-0.08250141 -0.2529556 -0.2008175
-0.08223025 -0.25253707 -0.19932684
-0.082263194 -0.253356 -0.19881278
-0.081991516 -0.25292516 -0.19732973
-0.08166945 -0.25228024 -0.19569308
-0.08170204 -0.25309038 -0.19518454
-0.081429854 -0.25263992 -0.19371578
-0.08115697 -0.25217977 -0.19225094
-0.08088412 -0.251713 -0.19079237
-0.08091622 -0.25251094 -0.1902915
-0.08059234 -0.25182068 -0.18868338
-0.08036922 -0.2515448 -0.18739474
-0.08040099 -0.25233462 -0.18689896
-0.08012682 -0.2518353 -0.1854608
-0.079801716 -0.25111398 -0.18387233
-0.07983313 -0.25189498 -0.18338208
-0.07955813 -0.25137463 -0.18195713
-0.07928283 -0.25084627 -0.18053734
-0.0790583 -0.25052798 -0.17927754
-0.07908925 -0.2512974 -0.17879455
-0.0788136 -0.25075126 -0.17738838
-0.078588374 -0.2504154 -0.17613971
-0.078619026 -0.25117743 -0.17566139
-0.07839294 -0.25082943 -0.17441773
-0.07811621 -0.2502562 -0.17302862
-0.07814656 -0.25101078 -0.17255498
-0.077920206 -0.25064707 -0.17132372
-0.077642694 -0.25005427 -0.16994694
-0.077466704 -0.24989927 -0.16887392
-0.07749665 -0.25064367 -0.16840665
-0.07721789 -0.2500299 -0.16704045
-0.07699079 -0.24963716 -0.1658302
-0.07702043 -0.2503741 -0.16536759
-0.076792456 -0.2499692 -0.16416237
-0.07656421 -0.24955754 -0.16296144
-0.076593585 -0.2502877 -0.16250311
-0.07641604 -0.2500941 -0.16145435
-0.076238796 -0.2498973 -0.16041051
-0.07600969 -0.24946344 -0.1592237
-0.07603871 -0.2501848 -0.1587709
-0.07580922 -0.24974084 -0.15759054
-0.07563121 -0.249524 -0.15655959
-0.075659975 -0.25023922 -0.15611061
-0.07548164 -0.25001425 -0.15508479
-0.07520027 -0.24931593 -0.15377693
-0.075228766 -0.2500244 -0.1533322
-0.075049154 -0.24978146 -0.15231386
-0.07487023 -0.2495372 -0.1513014
-0.07464026 -0.24905406 -0.15015326
-0.07466841 -0.24975377 -0.14971404
-0.07448808 -0.2494915 -0.14870825
-0.074258275 -0.2489959 -0.14757244
-0.07428618 -0.24968952 -0.14713705
-0.07408207 -0.24930517 -0.14607778
-0.07392816 -0.24914967 -0.14515747
-0.07395585 -0.24983789 -0.14472546
-0.07374997 -0.24943355 -0.1436721
-0.07357351 -0.24916212 -0.14270113
-0.07344682 -0.2491204 -0.14186558
-0.0734742 -0.24980094 -0.1414384
-0.073323265 -0.24963985 -0.14054365
-0.073300086 -0.25007936 -0.13998608
-0.07332735 -0.25075695 -0.13956074
-0.07323362 -0.25085965 -0.13882163
-0.07307844 -0.2506672 -0.137926
-0.07310554 -0.25134087 -0.13750313
-0.07292211 -0.2510076 -0.13654022
-0.07280759 -0.25100026 -0.1357574
-0.07271228 -0.2510822 -0.13502614
-0.07273913 -0.2517497 -0.13460715
-0.07233211 -0.2503239 -0.1330914
-0.072346695 -0.25092766 -0.13264562
-0.072373316 -0.25158942 -0.13223024
-0.33589476 -0.36802086 -1.8056365
-0.333861 -0.37012666 -1.7899776
-0.33193418 -0.37229627 -1.7749852
-0.3321213 -0.37694794 -1.7720653
-0.32909748 -0.37769228 -1.7509311
-0.32516414 -0.3772258 -1.7247316
-0.32534683 -0.38176793 -1.7218804
-0.3211064 -0.3807395 -1.6941082
-0.31638077 -0.37896788 -1.6637213
-0.31655788 -0.38337094 -1.6609575
-0.31220758 -0.38188007 -1.632858
-0.30791944 -0.38034323 -1.6052204
-0.30446324 -0.37978733 -1.5823307
-0.3046328 -0.3840026 -1.5796847
-0.30122465 -0.38335878 -1.5571988
-0.29816267 -0.3830896 -1.5367187
-0.29832816 -0.38720384 -1.5341362
-0.29563528 -0.38731575 -1.5158112
-0.29290628 -0.38729662 -1.4973595
-0.29306835 -0.3913256 -1.4948305
-0.29152864 -0.39290038 -1.482993
-0.28725073 -0.39044088 -1.4562551
-0.28373766 -0.38898206 -1.433793
-0.2838939 -0.39286593 -1.431355
-0.28248245 -0.3944017 -1.4204205
-0.20181203 -0.2760854 -0.9809515
-0.20191935 -0.27875334 -0.97927684
-0.11745759 -0.15124424 -0.5224224
-0.11523554 -0.14912568 -0.50929093
-0.11529136 -0.15051344 -0.5084198
-0.114502326 -0.15056576 -0.503033
-0.11315485 -0.14970435 -0.494689
-0.11252082 -0.14995171 -0.49017537
-0.1125749 -0.15129629 -0.48933133
-0.11156768 -0.15090494 -0.48286715
-0.11062807 -0.15059595 -0.47678617
-0.11068094 -0.1519104 -0.47596106
-0.109803475 -0.1516649 -0.47024375
-0.10876096 -0.15111491 -0.4636832
-0.10881264 -0.15239969 -0.46287674
-0.10760218 -0.15151651 -0.45547962
-0.10642579 -0.15065797 -0.4482909
-0.105245925 -0.14976001 -0.44111422
-0.10529543 -0.15099041 -0.44034186
-0.10420257 -0.15019654 -0.4336603
-0.10314732 -0.14943886 -0.4272006
-0.103195496 -0.1506365 -0.42644882
-0.102314994 -0.15015079 -0.42092705
-0.101383515 -0.14954692 -0.41516656
-0.10143057 -0.15071677 -0.41443223
-0.10050519 -0.15008464 -0.40873852
-0.09957511 -0.14941758 -0.4030444
-0.09864361 -0.1487216 -0.3973667
-0.09868895 -0.14984892 -0.39665908
-0.097711205 -0.14902543 -0.3907831
-0.096690305 -0.14809167 -0.38471434
-0.09673443 -0.14918871 -0.38402572
-0.09575577 -0.1482945 -0.37820727
-0.09481789 -0.1474529 -0.3726174
-0.09486085 -0.14852092 -0.371947
-0.093965754 -0.14772514 -0.36660546
-0.09316328 -0.14708968 -0.36174655
-0.09254096 -0.1467945 -0.3578005
-0.092582494 -0.14782713 -0.3571523
-0.09215182 -0.1478965 -0.35417527
-0.0918102 -0.14813618 -0.35164756
-0.09185124 -0.1491565 -0.3510071
-0.09197815 -0.15035538 -0.3507871
-0.09205365 -0.15144892 -0.35031387
-0.092094764 -0.15247096 -0.34967235
-0.092596605 -0.15446933 -0.35127023
-0.09328003 -0.15686697 -0.35373762
-0.0939834 -0.15932427 -0.35628632
-0.09402553 -0.16037165 -0.35562888
-0.09474673 -0.16289368 -0.35824007
-0.095233485 -0.16492128 -0.35970944
-0.09527627 -0.16598476 -0.3590419
-0.09575659 -0.16801555 -0.36046496
-0.09614649 -0.16985668 -0.36144677
-0.09652066 -0.17167164 -0.36234564
-0.09656408 -0.17275108 -0.36166808
-0.09684446 -0.17436671 -0.36211154
-0.09717241 -0.17609675 -0.36277404
-0.09721613 -0.17718364 -0.3620918
-0.09749386 -0.17880917 -0.36250854
-0.09777508 -0.1804488 -0.36293614
-0.09781907 -0.1815424 -0.36224967
-0.09814578 -0.1832977 -0.36288106
-0.09847562 -0.18506765 -0.36352044
-0.09880601 -0.18684624 -0.36415574
-0.09885048 -0.187952 -0.36346164
-0.09922666 -0.18985115 -0.3642983
-0.09960568 -0.19176562 -0.3651404
-0.09965054 -0.19288084 -0.36444038
-0.09998246 -0.19469373 -0.36505523
-0.100314625 -0.19651453 -0.36566457
-0.10035981 -0.19763789 -0.36495945
-0.10064868 -0.1993628 -0.36536205
-0.101027444 -0.20131697 -0.36616668
-0.10140852 -0.20328546 -0.36697423
-0.10145423 -0.20442173 -0.36626098
-0.101787865 -0.20628342 -0.36684346
-0.10221776 -0.2083962 -0.36785153
-0.10226385 -0.20954195 -0.3671323
-0.1025517 -0.21130598 -0.36749277
-0.10293448 -0.21332017 -0.3682707
-0.1029809 -0.21447405 -0.36754638
-0.10326917 -0.21625566 -0.3678939
-0.10365403 -0.21829526 -0.36866295
-0.10399003 -0.22021535 -0.36920896
-0.10403694 -0.22138149 -0.36847696
-0.10432664 -0.22318996 -0.36881
-0.104759514 -0.22538511 -0.369764
-0.10480678 -0.22656007 -0.36902648
-0.105244555 -0.22878285 -0.36998877
-0.10568084 -0.2310114 -0.37093583
-0.10572854 -0.23219728 -0.37019145
-0.10626293 -0.23470727 -0.3715491
-0.10699734 -0.23777612 -0.37375757
-0.107583605 -0.24045527 -0.37531412
-0.10763227 -0.24166508 -0.37455472
-0.108417556 -0.24491562 -0.37694386
-0.10890805 -0.24736407 -0.3780598
-0.10895737 -0.24859032 -0.37729007
-0.10930479 -0.25065356 -0.37778464
-0.10964884 -0.2527146 -0.37825823
-0.109698504 -0.2539491 -0.3774833
-0.1097361 -0.25514925 -0.37665758
-0.10987897 -0.25664997 -0.37627405
-0.10967322 -0.2571526 -0.3744292
-0.10972278 -0.25838467 -0.3736558
-0.109378636 -0.25847748 -0.37124327
-0.10903238 -0.25855443 -0.36883068
-0.10908151 -0.25977558 -0.36806414
-0.108539455 -0.25926423 -0.3648559
-0.10809785 -0.25903404 -0.3620745
-0.10814637 -0.2602402 -0.3613174
-0.10760374 -0.2596923 -0.35813814
-0.10706345 -0.25913697 -0.35498142
-0.10647356 -0.25841895 -0.35163546
-0.10652108 -0.25959995 -0.35089412
-0.105978504 -0.25900137 -0.34776086
-0.10543535 -0.2583868 -0.34463817
-0.1054822 -0.2595515 -0.3439071
-0.10498796 -0.25906476 -0.34100035
-0.104443945 -0.2584124 -0.33790576
-0.10449017 -0.25956148 -0.33718446
-0.10399446 -0.2590369 -0.33430174
-0.103498146 -0.25849742 -0.33142838
-0.10304934 -0.2580927 -0.32875523
-0.1030947 -0.25922012 -0.3280475
-0.102548175 -0.2584912 -0.32500494
-0.10209855 -0.25805306 -0.3223563
-0.102143295 -0.25916559 -0.321658
-0.10169348 -0.25870913 -0.3190246
-0.10124312 -0.2582391 -0.31639972
-0.10128733 -0.25933802 -0.31570992
-0.10083615 -0.25884765 -0.31309777
-0.10043326 -0.258501 -0.3106832
-0.09998104 -0.25798425 -0.30808777
-0.100024454 -0.25906354 -0.30741027
-0.09967002 -0.25884745 -0.30520603
-0.099167556 -0.25813827 -0.30244374
-0.09921045 -0.25920466 -0.30177435
-0.098805845 -0.25879815 -0.299402
-0.09835044 -0.25821328 -0.2968463
-0.0978956 -0.25761855 -0.29430336
-0.0979377 -0.25866526 -0.29364634
-0.09753082 -0.25821304 -0.29129967
-0.09707409 -0.25758326 -0.2887755
-0.09711567 -0.25861707 -0.28812656
-0.096658126 -0.25796688 -0.28561506
-0.0962999 -0.25764132 -0.28348374
-0.09634099 -0.25866294 -0.2828425
-0.095981695 -0.25831968 -0.28071982
-0.09557235 -0.25779584 -0.27842098
-0.09511286 -0.25708935 -0.2759471
-0.09515322 -0.25809267 -0.27531725
-0.09479272 -0.2577108 -0.27322128
-0.09438167 -0.25714427 -0.27094918
-0.09442156 -0.25813606 -0.2703266
-0.09400975 -0.2575512 -0.26806602
-0.09364735 -0.25712886 -0.2659935
-0.09368678 -0.25810915 -0.26537815
-0.09332373 -0.25767055 -0.2633159
-0.092910565 -0.2570454 -0.26108232
-0.092496894 -0.256408 -0.2588564
-0.092535615 -0.25737062 -0.2582521
-0.092120595 -0.25671276 -0.25603548
-0.091705695 -0.25604483 -0.25382864
-0.09174392 -0.2569953 -0.25323203
-0.0914286 -0.2566708 -0.25139004
-0.09106271 -0.25615528 -0.24937774
-0.09110053 -0.25709558 -0.24878752
-0.09073399 -0.25656378 -0.24678543
-0.09036699 -0.25602114 -0.24479014
-0.08999959 -0.25546765 -0.24280173
-0.09003675 -0.25639167 -0.2422217
-0.089719325 -0.25600865 -0.24041823
-0.08935115 -0.25542983 -0.23844743
-0.08938791 -0.2563437 -0.23787378
-0.08901877 -0.25574753 -0.23591213
-0.08869997 -0.25532994 -0.2341304
-0.08873632 -0.2562336 -0.23356314
-0.088366404 -0.25561208 -0.23161905
-0.0880466 -0.25517002 -0.2298526
-0.08772643 -0.25471854 -0.2280921
-0.08776218 -0.2556073 -0.22753422
-0.0873905 -0.25494805 -0.22561212
-0.08706935 -0.25447217 -0.22386694
-0.08710469 -0.25535074 -0.22331543
-0.08678296 -0.25486058 -0.2215792
-0.08646084 -0.25436094 -0.21984889
-0.0864958 -0.25523004 -0.21930334
-0.0861734 -0.2547173 -0.21758293
-0.08585034 -0.2541939 -0.21586752
-0.085577734 -0.2538588 -0.21432425
-0.08561215 -0.25471437 -0.2137872
-0.08523755 -0.25396997 -0.2119219
-0.08491345 -0.25341457 -0.21022835
-0.08494745 -0.25425997 -0.20969768
-0.08467345 -0.2538903 -0.20817608
-0.084348135 -0.25331068 -0.20649604
-0.08438179 -0.25414726 -0.20597091
-0.08410757 -0.253759 -0.20446448
-0.08383238 -0.2533601 -0.20296118
-0.08350577 -0.25274864 -0.20130111
-0.083538905 -0.25357234 -0.20078407
-0.08321208 -0.252948 -0.199134
-0.08298684 -0.25272554 -0.1978099
-0.083019644 -0.2535411 -0.19729796
-0.08269191 -0.25289437 -0.19566196
-0.08241504 -0.25244662 -0.19419114
-0.08244749 -0.25325337 -0.19368474
-0.082118474 -0.25258222 -0.19206212
-0.08189204 -0.2523237 -0.19076237
-0.08156308 -0.251638 -0.18915313
-0.08159501 -0.25243187 -0.18865481
-0.08126471 -0.25172886 -0.18705218
-0.08103721 -0.25144383 -0.18576902
-0.08106882 -0.25222957 -0.18527581
-0.08078946 -0.25172007 -0.18384372
-0.08045831 -0.25098756 -0.18226188
-0.08048956 -0.2517645 -0.1817742
-0.08026128 -0.2514519 -0.18051052
-0.0799808 -0.25091404 -0.17909636
-0.0797004 -0.25036985 -0.17768858
-0.079731196 -0.25113526 -0.17720811
-0.07950148 -0.25079584 -0.17595895
-0.07927193 -0.25045148 -0.17471531
-0.079302445 -0.2512101 -0.1742391
-0.07902082 -0.2506348 -0.17285094
