ply
format ascii 1.0
element vertex 1418
property float x
property float y
property float z
end_header
1.2256926 -0.88652426 -3.2115626
1.2286825 -0.89665866 -3.2129977
1.2313178 -0.90658426 -3.2135007
1.2313452 -0.91471153 -3.2073538
1.2332522 -0.92417127 -3.205972
1.235236 -0.9337102 -3.2047665
1.2352636 -0.94186234 -3.1986008
1.2377269 -0.95178795 -3.198574
1.2405229 -0.9619892 -3.1993606
1.2405505 -0.97017485 -3.1931694
1.2429099 -0.9801033 -3.1928215
1.2454846 -0.99022406 -3.1929884
1.2478194 -1.0001953 -3.1925318
1.2478472 -1.008427 -3.186306
1.250396 -1.0186079 -3.1863463
1.2528981 -1.028785 -3.186247
1.252926 -1.037049 -3.1799967
1.2555404 -1.0473627 -3.1801376
1.2579008 -1.0575068 -3.1796277
1.2579288 -1.0658026 -3.1733532
1.2606314 -1.0762694 -3.173649
1.2625957 -1.0861663 -3.1721077
1.2658591 -1.0971596 -3.1737266
1.2658874 -1.105506 -3.167414
1.2685416 -1.1160512 -3.1675005
1.272114 -1.1274053 -3.169794
1.2721424 -1.1357912 -3.1634514
1.2753408 -1.1468929 -3.164786
1.2784964 -1.1579987 -3.165987
1.2785249 -1.1664252 -3.1596138
1.2814103 -1.1773543 -3.1601176
1.285201 -1.1891189 -3.162768
1.2880821 -1.2001237 -3.1632013
1.2881109 -1.2086112 -3.156782
1.291091 -1.21976 -3.157409
1.2943135 -1.231167 -3.158585
1.2943424 -1.2396941 -3.1521356
1.2969784 -1.2506222 -3.1518722
1.2989343 -1.2609531 -3.1499727
1.3001887 -1.2706537 -3.1463969
1.3002175 -1.2792181 -3.1399193
1.2998134 -1.2873724 -3.1324227
1.3017473 -1.2977493 -3.1304202
1.3017763 -1.306323 -3.1239357
1.3043255 -1.3173308 -3.1233442
1.3046299 -1.3261889 -3.1174898
1.304659 -1.3347807 -3.1109917
0.28429738 -0.3583539 -0.7181074
0.27911922 -0.35490182 -0.70481145
0.2737807 -0.35121286 -0.6912035
0.27378732 -0.3531665 -0.6897259
0.2712371 -0.35237184 -0.6824834
0.26812986 -0.35094202 -0.6740129
0.26813632 -0.35285914 -0.6725629
0.26592344 -0.35234797 -0.6661416
0.2639229 -0.35204208 -0.6602168
0.2639293 -0.35393202 -0.65878737
0.2625792 -0.35431167 -0.6543395
0.26069468 -0.3540755 -0.6487184
0.2596306 -0.354739 -0.6449334
0.25963688 -0.35660115 -0.643525
0.2582196 -0.3568419 -0.63897693
0.257407 -0.35775688 -0.6357734
0.25741324 -0.3596046 -0.63437593
0.25642467 -0.36030003 -0.630799
0.25579858 -0.36140493 -0.62802416
0.25580478 -0.36324215 -0.6266346
0.25519517 -0.3643543 -0.623905
0.25477716 -0.36568537 -0.6215974
0.25413695 -0.36674652 -0.6188127
0.25414312 -0.3685729 -0.61743134
0.25353053 -0.36965483 -0.6147156
0.2525173 -0.37024432 -0.6111442
0.25252345 -0.37206015 -0.6097708
0.25192288 -0.3731344 -0.607098
0.25171036 -0.3746777 -0.6052604
0.25171646 -0.3764882 -0.60389096
0.25143126 -0.37793702 -0.6019019
0.2514638 -0.3797787 -0.6005901
0.25068027 -0.38059703 -0.5975503
0.25068638 -0.3824008 -0.596186
0.24906863 -0.38214684 -0.59139985
0.22702469 -0.35585794 -0.54368645
0.22703028 -0.35750943 -0.5424374
0.15665177 -0.26862025 -0.39390683
0.15209223 -0.26391932 -0.38347313
0.15209618 -0.2650887 -0.38258868
0.14910416 -0.2623466 -0.37547913
0.14606199 -0.25950035 -0.36829507
0.14394268 -0.25783175 -0.3630494
0.14394645 -0.25894865 -0.36220464
0.14273879 -0.25845286 -0.3588665
0.14134349 -0.25769058 -0.35515505
0.14134721 -0.2587907 -0.35432297
0.14025693 -0.25841343 -0.3512554
0.13916793 -0.25802395 -0.34820122
0.13917162 -0.25911 -0.3473798
0.13818078 -0.258834 -0.34454083
0.13728844 -0.25868073 -0.3419109
0.13629927 -0.25838217 -0.3390943
0.13630287 -0.25944966 -0.33828694
0.13511549 -0.25885546 -0.3350867
0.13412495 -0.25852194 -0.3322927
0.13412853 -0.2595754 -0.33149594
0.13294116 -0.25894442 -0.32832405
0.13185294 -0.25843906 -0.32536107
0.13185646 -0.25947782 -0.3245754
0.13076824 -0.25895151 -0.32162848
0.12978056 -0.258556 -0.31889084
0.12878977 -0.2581433 -0.31615674
0.12879321 -0.25916228 -0.31538603
0.12790312 -0.25887746 -0.31286398
0.12701027 -0.25857714 -0.3103453
0.12701368 -0.25958464 -0.30958328
0.12622292 -0.25941804 -0.30727637
0.12523483 -0.25894833 -0.30459434
0.1252382 -0.25994432 -0.30384102
0.12444607 -0.25974903 -0.3015519
0.12355471 -0.25939435 -0.2990795
0.12276381 -0.25917992 -0.29680887
0.12276713 -0.26015997 -0.29606763
0.12197618 -0.25993022 -0.29380852
0.12108596 -0.2595385 -0.291368
0.121089235 -0.2605077 -0.29063496
0.1202982 -0.26025182 -0.28839567
0.11960543 -0.26013795 -0.28635
0.11881436 -0.25986233 -0.28412578
0.11881758 -0.26081687 -0.28340384
0.11812577 -0.2606816 -0.28137752
0.11733461 -0.2603811 -0.27917206
0.11733781 -0.26132607 -0.27845737
0.11664497 -0.26116633 -0.27644667
0.11585372 -0.26084092 -0.27426004
0.11585688 -0.2617763 -0.27355257
0.115066536 -0.2614371 -0.2713793
0.11427521 -0.2610862 -0.26921198
0.113583155 -0.26088586 -0.26723483
0.11358627 -0.26180655 -0.2665385
0.1127958 -0.2614323 -0.2643917
0.11210274 -0.26120746 -0.26243025
0.11210582 -0.26211858 -0.26174113
0.111314334 -0.26171792 -0.25961146
0.11052373 -0.26130855 -0.2574912
0.11052678 -0.26220948 -0.25680977
0.10983361 -0.26194763 -0.25487638
0.10914133 -0.26167837 -0.25295138
0.10834967 -0.26123303 -0.25085545
0.10835267 -0.26211992 -0.25018468
0.10775875 -0.26199463 -0.24845216
0.10696793 -0.26152655 -0.2463762
0.106970906 -0.26240453 -0.24571218
0.10627761 -0.2620885 -0.24381994
0.10558516 -0.26176503 -0.24193597
0.1055881 -0.26263404 -0.24127871
0.104895584 -0.26229715 -0.23940489
0.104203075 -0.2619514 -0.23753785
0.10351052 -0.26159668 -0.23567754
0.10351341 -0.26245227 -0.23503043
0.102820806 -0.2620842 -0.23318025
0.10212819 -0.26170713 -0.23133685
0.10213106 -0.26255378 -0.23069648
0.10143917 -0.26216477 -0.22886455
0.100746445 -0.26176536 -0.22703801
0.100749284 -0.2626031 -0.2264044
0.099957936 -0.26201308 -0.22442035
0.09936373 -0.26176858 -0.22277832
0.098670915 -0.2613379 -0.22097544
0.0986737 -0.26216227 -0.22035195
0.097883 -0.26153985 -0.21839476
0.09719012 -0.26108623 -0.21660925
0.097192876 -0.26190102 -0.21599299
0.09659849 -0.26161563 -0.21438183
0.09590552 -0.26114032 -0.21261272
0.09590825 -0.2619468 -0.21200274
0.09521602 -0.26145953 -0.21024506
0.09462156 -0.26114607 -0.20865516
0.09392929 -0.26064163 -0.20691052
0.09393197 -0.26143536 -0.2063102
0.09323885 -0.26091602 -0.20457438
0.09264429 -0.26057443 -0.2030057
0.09264695 -0.26135987 -0.20241167
0.09205316 -0.26100832 -0.20085302
0.09136073 -0.26046053 -0.19914116
0.091363356 -0.26123765 -0.19855338
0.09076951 -0.26086634 -0.19700968
0.090174794 -0.2604858 -0.19547047
0.08958171 -0.26010072 -0.19393967
0.0895843 -0.2608664 -0.19336057
0.08899034 -0.26046824 -0.19183712
0.08839637 -0.26006246 -0.1903195
0.08839893 -0.26082048 -0.18974619
0.08790434 -0.26059908 -0.18839315
0.08731029 -0.26017478 -0.1868895
0.08731283 -0.26092577 -0.1863215
0.08662012 -0.2602938 -0.1846733
0.08612465 -0.26004654 -0.18333738
0.08563074 -0.2597961 -0.18200873
0.08563324 -0.26053625 -0.18144892
0.08513853 -0.26027468 -0.18012632
0.08454434 -0.25980574 -0.17865644
0.08454682 -0.26053888 -0.17810196
0.08405204 -0.2602607 -0.17679189
0.08355723 -0.25997612 -0.17548665
0.08355969 -0.26070288 -0.17493698
0.08306407 -0.26040712 -0.1736378
0.08256921 -0.26010662 -0.17234461
0.08207433 -0.25979972 -0.17105626
0.08207676 -0.26051688 -0.17051384
0.081680514 -0.26040548 -0.16937928
0.08108769 -0.2598792 -0.16795759
0.08109009 -0.26059 -0.16742
0.08069382 -0.26046458 -0.16629608
0.08019883 -0.2601264 -0.16503137
0.07970382 -0.25978187 -0.16377148
0.0797062 -0.2604837 -0.16324064
0.07921195 -0.26013127 -0.16198915
0.078815594 -0.25998098 -0.16088408
0.07881795 -0.2606771 -0.1603576
0.078322865 -0.26030767 -0.15911655
0.07792646 -0.26014394 -0.15802163
0.0779288 -0.2608343 -0.15749946
0.07753313 -0.26066455 -0.15641145
0.07703798 -0.26027408 -0.15518633
0.0766423 -0.2600935 -0.15410651
0.0766446 -0.26077557 -0.15359063
0.07624809 -0.26058558 -0.15251549
0.075655006 -0.25995946 -0.15116955
0.07565729 -0.26063517 -0.15065852
0.07526072 -0.2604311 -0.14959396
0.074864924 -0.26022372 -0.1485344
0.07486719 -0.26089427 -0.14802723
0.07447054 -0.26067737 -0.1469723
0.07397606 -0.2602371 -0.14578743
0.07358021 -0.2600112 -0.1447419
0.073582456 -0.2606735 -0.14424098
0.073186584 -0.26043996 -0.14320122
0.072692074 -0.25997874 -0.14203231
0.072694294 -0.26063532 -0.14153573
0.07229796 -0.26038742 -0.14050555
0.07195136 -0.26024762 -0.13954557
0.071953565 -0.2608994 -0.13905263
0.07155761 -0.26064 -0.13803242
0.07121141 -0.26048976 -0.13708174
0.07081588 -0.26022154 -0.13606961
0.07081807 -0.26086596 -0.13558221
0.07047137 -0.26070315 -0.13463962
0.07007581 -0.26042256 -0.1336369
0.07007797 -0.26106218 -0.13315313
0.069731705 -0.260889 -0.13221982
0.06938494 -0.26071018 -0.13128927
0.06938709 -0.26134533 -0.13080887
0.06904076 -0.2611609 -0.129884
0.06869391 -0.26097083 -0.12896185
0.06834807 -0.26077867 -0.1280444
0.068350196 -0.26140717 -0.12756905
0.068003304 -0.26120585 -0.12665534
0.06770668 -0.26111996 -0.12580796
0.06770879 -0.2617443 -0.12533575
0.06736237 -0.26153335 -0.12443089
0.067015946 -0.26131797 -0.12352942
0.06701804 -0.26193783 -0.1230606
0.06672136 -0.261836 -0.122225255
0.06642406 -0.26172885 -0.12139208
0.06602838 -0.261379 -0.12044207
0.06603045 -0.26199245 -0.11997808
0.06568392 -0.26175502 -0.11909323
0.065386504 -0.26163334 -0.11827083
0.06538857 -0.26224265 -0.11780997
0.065091774 -0.26211676 -0.1169927
0.06479495 -0.26198706 -0.11617829
0.064797 -0.26259252 -0.11572034
0.06450017 -0.26245707 -0.11491029
0.064252295 -0.26243952 -0.114160605
0.063905574 -0.26217246 -0.11329785
0.06390761 -0.2627722 -0.11284424
0.06356167 -0.2625005 -0.1119875
0.0632149 -0.26222223 -0.111133195
0.06321691 -0.26281753 -0.11068296
0.06301749 -0.2629045 -0.11000228
0.062720194 -0.26274127 -0.10921211
0.06272219 -0.26333335 -0.1087643
0.06237609 -0.26304033 -0.10792336
0.062126756 -0.26298952 -0.10719463
0.061929833 -0.2630695 -0.10652702
0.06193182 -0.26365647 -0.10608309
0.06173532 -0.26373374 -0.10541886
0.061630875 -0.26404542 -0.10485827
0.061632853 -0.26463044 -0.1044158
0.061482746 -0.264822 -0.10380678
0.06113707 -0.26450443 -0.10298596
0.061139036 -0.26508626 -0.10254592
0.060885742 -0.26500285 -0.101830035
0.06063553 -0.26492423 -0.10111994
0.060690288 -0.26564106 -0.1007389
0.060692243 -0.26621994 -0.100301065
0.060173046 -0.26542744 -0.09931016
0.060295105 -0.26631984 -0.09900172
0.060297053 -0.26689616 -0.098565824
1.1478478 -0.48468205 -3.3097632
1.1478736 -0.49234137 -3.3039703
1.1517556 -0.50154346 -3.308964
1.1556691 -0.51080847 -3.314007
1.1556951 -0.5185182 -3.308176
1.159731 -0.5279103 -3.3135026
1.1633955 -0.5371961 -3.317757
1.1634218 -0.54495555 -3.3118882
1.165522 -0.55362564 -3.3117592
1.1679254 -0.5624576 -3.3124468
1.1703104 -0.57131225 -3.3130608
1.1703367 -0.57911605 -3.3071587
1.1723043 -0.5878225 -3.3065891
1.1743119 -0.5965729 -3.3061109
1.1743383 -0.6044022 -3.3001895
1.176323 -0.6131801 -3.2996194
1.1783941 -0.6220259 -3.2992651
1.1784207 -0.6298813 -3.2933238
1.1803677 -0.6387044 -3.292602
1.1821777 -0.6474824 -3.291489
1.1838317 -0.65620315 -3.2899363
1.1838584 -0.664093 -3.283969
1.1854464 -0.6728104 -3.2822134
1.186705 -0.6813712 -3.2795558
1.1867317 -0.6892793 -3.2735748
1.1886085 -0.69820386 -3.2725568
1.190308 -0.7070538 -3.271046
1.1903348 -0.7149848 -3.2650473
1.1919706 -0.723831 -3.2633414
1.1938084 -0.73281455 -3.262158
1.1944159 -0.74110556 -3.2576857
1.1944427 -0.74906254 -3.2516675
1.1964177 -0.7581781 -3.2508078
1.1978151 -0.7669718 -3.248402
1.1978421 -0.7749505 -3.2423675
1.1994433 -0.783896 -3.2404788
1.2011347 -0.7929179 -3.2388103
1.2027053 -0.8018858 -3.2368093
1.2027323 -0.80989534 -3.2307513
1.2045095 -0.8190255 -3.2292666
1.206296 -0.8281842 -3.2277887
1.206323 -0.8362166 -3.2217133
1.2086967 -0.8457971 -3.2217352
1.2110864 -0.85541844 -3.221775
1.2111137 -0.86348146 -3.2156765
1.2135011 -0.8731474 -3.2156758
1.2155352 -0.8826016 -3.21474
1.2185011 -0.89272666 -3.2161825
1.2185285 -0.90083724 -3.2100482
1.2211426 -0.91077155 -3.210545
1.2230344 -0.9202254 -3.2091682
1.2230619 -0.9283649 -3.203012
1.2250302 -0.93791026 -3.2018018
1.2274737 -0.9478283 -3.2017813
1.2275013 -0.95599604 -3.1956038
1.2302749 -0.9662066 -3.1963837
1.2326155 -0.97612774 -3.1960416
1.2351694 -0.98624057 -3.196215
1.2351972 -0.99445754 -3.1900003
1.2375137 -1.0044364 -3.1895382
1.2400419 -1.0146092 -3.1895852
1.2400697 -1.0228574 -3.1833467
1.2425519 -1.0330427 -3.1832418
1.2451452 -1.0433483 -3.1833894
1.2451732 -1.0516291 -3.1771264
1.2475148 -1.0617809 -3.1766107
1.2501959 -1.0722393 -3.1769133
1.2521445 -1.0821301 -3.175377
1.2521726 -1.0904557 -3.16908
1.2554102 -1.1014597 -3.1706915
1.2580432 -1.1119968 -3.1707845
1.2580714 -1.1203601 -3.164459
1.2616152 -1.1317258 -3.1667442
1.2647878 -1.1428176 -3.1680872
1.2648162 -1.151224 -3.161729
1.2679468 -1.16234 -3.1629226
1.270809 -1.1732603 -3.1634338
1.2745693 -1.185013 -3.1660936
1.2745979 -1.1934824 -3.159688
1.2774562 -1.2044966 -3.1601148
1.2804124 -1.215636 -3.1607492
1.2804412 -1.2241427 -3.1543155
1.2836381 -1.2355602 -3.155484
1.2862529 -1.2464801 -3.155227
1.2862817 -1.2550242 -3.1487648
1.2882222 -1.2653614 -3.146861
1.2894666 -1.2750661 -3.1432822
1.289066 -1.2832217 -3.1357846
1.2890949 -1.2917833 -3.1293092
1.2910134 -1.3021666 -3.1273024
1.2935423 -1.3131665 -3.126717
1.2935712 -1.3217566 -3.1202202
1.2938735 -1.3306154 -3.1143656
0.28175983 -0.35737395 -0.71890116
0.28176665 -0.35939538 -0.7173723
0.27663028 -0.35592607 -0.7040885
0.27133486 -0.3522194 -0.690493
0.26880535 -0.3514327 -0.6832441
0.26881188 -0.35336986 -0.68177897
0.26572973 -0.35192975 -0.6733157
0.26353475 -0.3514255 -0.66688883
0.26354116 -0.35332835 -0.6654496
0.2615568 -0.35301578 -0.6595295
0.26021767 -0.35339966 -0.65507823
0.26022404 -0.35528088 -0.6536554
0.25835475 -0.35503843 -0.64803874
0.2572993 -0.3556984 -0.64425623
0.25589353 -0.35594356 -0.6397046
0.25589982 -0.35779655 -0.6383031
0.25509378 -0.35870883 -0.6351015
0.25411323 -0.3594074 -0.631522
0.25411943 -0.3612487 -0.6301294
0.25349844 -0.36235148 -0.62735605
0.2528938 -0.36346555 -0.62462485
0.2529 -0.3652988 -0.6232383
0.25248542 -0.36662847 -0.62093174
0.25185046 -0.36768746 -0.6181485
0.25124282 -0.36877134 -0.61543125
0.251249 -0.37059376 -0.6140529
0.250244 -0.37117985 -0.6104838
0.24964832 -0.37225598 -0.6078095
0.24965444 -0.37406793 -0.60643905
0.24944367 -0.37561047 -0.6046019
0.24916075 -0.37706017 -0.6026121
0.24919315 -0.37890178 -0.60130036
0.24919926 -0.38071063 -0.5999323
0.24842207 -0.38152635 -0.59689426
0.24681741 -0.38127744 -0.592104
0.24682347 -0.38307077 -0.59074765
0.22495714 -0.3567088 -0.5430859
0.15514693 -0.2680391 -0.39437756
0.15515098 -0.26923788 -0.3934709
0.1506282 -0.2645218 -0.38304788
0.14766036 -0.26178902 -0.37593076
0.14464279 -0.25895226 -0.368739
0.1446466 -0.2600828 -0.36788395
0.14254442 -0.2584072 -0.3626432
0.1413465 -0.25791517 -0.35930204
0.14135024 -0.25902426 -0.35846317
0.13996622 -0.25825736 -0.35475495
0.13888477 -0.25788352 -0.35168463
0.13888846 -0.2589766 -0.35085788
0.13780826 -0.25858352 -0.34780625
0.13682549 -0.2583106 -0.3449648
0.13594036 -0.2581601 -0.3423326
0.135944 -0.259234 -0.34152037
0.13496283 -0.25893214 -0.3387061
0.13378502 -0.25834167 -0.3355029
0.1337886 -0.2594015 -0.3347013
0.13280608 -0.2590647 -0.3319096
0.13162835 -0.25843742 -0.32873473
0.1316319 -0.25948322 -0.32794374
0.13055244 -0.25897425 -0.3249833
0.12947305 -0.2584513 -0.32203364
0.12849337 -0.2580589 -0.31929347
0.12849684 -0.25908428 -0.31851792
0.12751403 -0.25866827 -0.31578618
0.12663116 -0.25838622 -0.31326187
0.12663458 -0.25939947 -0.3124955
0.12574896 -0.2590962 -0.3099789
0.124964595 -0.25893208 -0.30766997
0.124967985 -0.25993448 -0.30691183
0.123987876 -0.25946146 -0.30423212
0.12320217 -0.25926864 -0.301941
0.12231803 -0.25891674 -0.29946637
0.12232136 -0.25990188 -0.29872125
0.121536866 -0.25968486 -0.29645246
0.120752305 -0.2594576 -0.29419136
0.120755605 -0.26043254 -0.29345396
0.11987258 -0.26003784 -0.29101554
0.11908795 -0.25978443 -0.28877425
0.119091205 -0.26074854 -0.28804508
0.11840403 -0.26063237 -0.28600106
0.11761937 -0.2603541 -0.28377864
0.11693314 -0.26022103 -0.28175056
0.11693635 -0.26117107 -0.281032
0.11615159 -0.26086798 -0.2788284
0.115464374 -0.26071042 -0.27681595
0.11546755 -0.2616509 -0.27610466
0.1146827 -0.26132286 -0.27391988
0.11389874 -0.26098612 -0.27174458
0.11390188 -0.2619164 -0.27104098
0.11311696 -0.26156285 -0.2688755
0.11243048 -0.2613602 -0.26690003
0.11164642 -0.2609884 -0.26475123
0.11164952 -0.26190403 -0.26405874
0.11096206 -0.26167688 -0.2620989
0.11017698 -0.2612787 -0.25996724
0.11018004 -0.26218468 -0.25928196
0.10939581 -0.26177272 -0.25716355
0.10870827 -0.26151305 -0.25522837
0.1087113 -0.2624095 -0.25455037
0.1080246 -0.26213795 -0.252627
0.10723934 -0.26168996 -0.25053293
0.10665024 -0.26156652 -0.2487989
0.10665323 -0.2624496 -0.24813102
0.10586879 -0.2619789 -0.24605691
0.10518111 -0.26166505 -0.24416293
0.10518406 -0.26253852 -0.24350227
0.10449719 -0.26221275 -0.24161993
0.10381031 -0.26187804 -0.23974437
0.10381323 -0.26274258 -0.23909047
0.103126295 -0.26239452 -0.23722506
0.10243934 -0.26203752 -0.23536639
0.10175234 -0.26167154 -0.23351447
0.101755224 -0.2625227 -0.23287071
0.10106819 -0.26214334 -0.23102894
0.1003819 -0.26175645 -0.22919527
0.10038475 -0.2625987 -0.22855826
0.099697635 -0.262197 -0.22673336
0.098912686 -0.26160944 -0.22474732
0.09832329 -0.26136678 -0.22310378
0.098326094 -0.2621956 -0.22247693
0.09763886 -0.26176265 -0.22067565
0.09685456 -0.2611427 -0.21871646
0.09685733 -0.26196194 -0.21809682
0.09617004 -0.26150605 -0.21631293
0.09558048 -0.2612225 -0.21470027
0.09558322 -0.26203343 -0.21408692
0.09489583 -0.26155582 -0.21231942
0.09420921 -0.26107073 -0.21056
0.09361956 -0.26075912 -0.2089686
0.09362227 -0.26155734 -0.20836489
0.09293558 -0.26105058 -0.20662189
0.09224806 -0.2605334 -0.20488429
0.09225073 -0.26132268 -0.20428734
0.09166096 -0.2609791 -0.20272008
0.09107198 -0.26062942 -0.20115992
0.09107462 -0.26141104 -0.20056877
0.090387784 -0.26086092 -0.19885854
0.08979874 -0.26049146 -0.19731335
0.08920884 -0.26011276 -0.19577262
0.08921144 -0.26088223 -0.19519064
0.088623144 -0.26049522 -0.19366121
0.088034 -0.26009893 -0.19213626
0.08803657 -0.26086074 -0.19156007
0.08744739 -0.26045302 -0.19004384
0.0869568 -0.26023316 -0.18868954
0.08695935 -0.26098797 -0.18811865
0.0863701 -0.2605617 -0.18661639
0.085682996 -0.25993192 -0.18496643
0.08519153 -0.2596862 -0.18362926
0.085194044 -0.26042953 -0.18306705
0.084704116 -0.26017746 -0.18173955
0.08421341 -0.2599174 -0.1804157
0.0842159 -0.2606544 -0.17985831
0.0836265 -0.26018345 -0.17838983
0.08313573 -0.25990683 -0.17707852
0.0831382 -0.26063678 -0.17652644
0.08264738 -0.26035056 -0.17522235
0.08215579 -0.26005638 -0.17392191
0.08166492 -0.2597574 -0.17262748
0.081667356 -0.26047775 -0.17208265
0.081176475 -0.2601692 -0.17079544
0.08078344 -0.26005906 -0.16965988
0.080785856 -0.26077366 -0.1691194
0.08019781 -0.2602454 -0.1676991
0.079804756 -0.26012126 -0.16657418
0.079807155 -0.26082948 -0.16603851
0.07931615 -0.26048967 -0.16477497
0.07882514 -0.2601435 -0.16351624
0.07833488 -0.25979257 -0.1622635
0.078337245 -0.26049125 -0.16173506
0.07794409 -0.26033965 -0.16063093
0.077453025 -0.25997177 -0.15938863
0.077455364 -0.2606647 -0.15886456
0.07706216 -0.26049963 -0.15777056
0.07666971 -0.2603311 -0.15668152
0.07667203 -0.26101893 -0.15616131
0.076180875 -0.26062682 -0.15493734
0.07578838 -0.2604449 -0.15385847
0.07539507 -0.26025617 -0.1527823
0.07539737 -0.2609357 -0.15226837
0.07480907 -0.2603076 -0.15092383
0.074415706 -0.26010478 -0.1498583
0.074417986 -0.26077792 -0.14934917
0.074025385 -0.26056919 -0.14829054
0.07363194 -0.2603535 -0.14723462
0.0736342 -0.26102152 -0.14672935
0.07314372 -0.26057962 -0.14554566
0.07275107 -0.26035243 -0.14450103
0.0723584 -0.26012012 -0.14346027
0.07236063 -0.26077986 -0.1429613
0.0718701 -0.26031703 -0.14179353
0.071476966 -0.26007035 -0.14076234
0.07147918 -0.26072437 -0.1402677
0.07113538 -0.26058343 -0.13930856
0.07074264 -0.26032528 -0.13828735
0.07074483 -0.2609745 -0.13779631
0.07040144 -0.2608231 -0.13684645
0.07000909 -0.26055354 -0.13583526
0.0696652 -0.26039183 -0.13489178
0.06966738 -0.26103404 -0.13440606
0.069275014 -0.26075208 -0.13340428
0.06893155 -0.26057997 -0.13247012
0.0689337 -0.2612174 -0.13198802
0.06858974 -0.2610374 -0.13105829
0.06824621 -0.26085407 -0.13013254
0.068248354 -0.26148704 -0.12965381
0.06790431 -0.26129577 -0.12873249
0.067561254 -0.2611025 -0.12781584
0.06721717 -0.26090226 -0.12690124
0.06721929 -0.2615285 -0.1264276
0.066925064 -0.26144165 -0.1255809
0.066581436 -0.26123178 -0.124675155
0.066583544 -0.26185387 -0.12420465
0.066239916 -0.26163733 -0.123303995
0.06594565 -0.26153642 -0.122467905
0.065650746 -0.2614302 -0.12163397
0.06565283 -0.26204622 -0.12116805
0.06526034 -0.26169506 -0.12021896
0.06491662 -0.2614587 -0.11933325
0.06491868 -0.26206994 -0.118870944
0.06462367 -0.26194727 -0.118049234
0.064329274 -0.2618223 -0.11723121
0.06433133 -0.26242974 -0.116771795
0.064036906 -0.262299 -0.115958095
0.06374247 -0.26216447 -0.1151473
0.06349662 -0.2621477 -0.114396974
0.06349866 -0.26274967 -0.113941684
0.06315472 -0.26248148 -0.11307974
0.06281159 -0.26221085 -0.11222213
0.06281361 -0.26280835 -0.11177021
0.06246964 -0.26252896 -0.1109167
0.062271833 -0.26261654 -0.11023552
0.06227384 -0.2632105 -0.10978627
0.06197895 -0.26304632 -0.108996786
0.061635643 -0.26275438 -0.108154975
0.06138832 -0.26270437 -0.10742561
0.06139031 -0.26329258 -0.10698071
0.06119499 -0.2633719 -0.10631356
0.06100009 -0.2634498 -0.105648845
0.061002072 -0.2640355 -0.10520586
0.060898468 -0.26434684 -0.10464552
0.060749598 -0.26453888 -0.104036115
0.060751572 -0.26512292 -0.10359438
0.060408674 -0.2648042 -0.102774374
0.060157433 -0.2647216 -0.10205785
0.059909247 -0.26464376 -0.10134713
0.059911203 -0.2652223 -0.10090954
0.059965543 -0.2659393 -0.10052838
0.059450522 -0.26514843 -0.099536166
0.05945247 -0.265724 -0.09910084
0.05957357 -0.26661676 -0.098792136
1.1513667 -0.5169915 -3.3262525
1.1566772 -0.5269549 -3.335233
1.1567036 -0.5347345 -3.329349
1.160739 -0.54424936 -3.334682
1.1635201 -0.5532658 -3.3364723
1.1667228 -0.56250626 -3.3394096
1.1667494 -0.57035106 -3.3334763
1.1693256 -0.5793662 -3.3346257
1.1719228 -0.58842456 -3.3358078
1.1719495 -0.59630275 -3.3298492
1.1740758 -0.6051863 -3.3296916
1.1760815 -0.6140387 -3.3291805
1.1761084 -0.6219436 -3.323202
1.1781108 -0.6308331 -3.3226516
1.1797906 -0.63958573 -3.321197
1.1814244 -0.6483363 -3.3195994
1.1814512 -0.6562755 -3.3135946
1.1829317 -0.6649774 -3.3115544
1.1847963 -0.6739023 -3.3105462
1.1848233 -0.68186307 -3.3045251
1.1865066 -0.69072527 -3.3029974
1.1883005 -0.69967014 -3.3017523
1.1883276 -0.70765346 -3.2957144
1.1903343 -0.716753 -3.2950165
1.1912788 -0.72527236 -3.2914388
1.1916667 -0.7334829 -3.2863567
1.1916938 -0.74148756 -3.2803023
1.1915785 -0.7494081 -3.273867
1.1925801 -0.75799316 -3.2704177
1.1926072 -0.7660033 -3.2643592
1.1936792 -0.7746504 -3.261083
1.1942925 -0.78302854 -3.2565777
1.1943197 -0.7910493 -3.2505114
1.195997 -0.80010843 -3.2488139
1.1969162 -0.80870724 -3.2450964
1.1986351 -0.81783104 -3.2434785
1.1986624 -0.8258796 -3.237391
1.2003524 -0.8350179 -3.2356727
1.20191 -0.8440903 -3.2335901
1.2019373 -0.8521597 -3.227487
1.2042592 -0.86177814 -3.2273781
1.2061018 -0.87109953 -3.2259963
1.2061292 -0.87919587 -3.2198727
1.2078687 -0.88848144 -3.2181954
1.2104398 -0.8983726 -3.2186577
1.2128193 -0.9081612 -3.2185981
1.2128469 -0.9163009 -3.212442
1.2147125 -0.92576516 -3.2110226
1.2172959 -0.9357757 -3.2114313
1.2173234 -0.94394416 -3.2052531
1.2193985 -0.95362836 -3.204321
1.2222795 -0.9639413 -3.2054293
1.2223073 -0.97214186 -3.1992269
1.2251945 -0.98251534 -3.2003076
1.2279447 -0.99282116 -3.2010117
1.2311642 -1.0035255 -3.2028794
1.2311921 -1.0117835 -3.1966336
1.2337258 -1.0220112 -3.1967201
1.2357048 -1.0318317 -3.195382
1.2357328 -1.040119 -3.189114
1.2387092 -1.0507816 -3.1902528
1.2408649 -1.0608162 -3.1893044
1.240893 -1.0691365 -3.1830113
1.2433008 -1.0794206 -3.1826599
1.2456748 -1.0897079 -3.1822014
1.2488196 -1.100672 -3.1836357
1.248848 -1.1090437 -3.1773038
1.2513897 -1.1195552 -3.1771977
1.2547055 -1.1307638 -3.1789799
1.254734 -1.1391735 -3.1726193
1.2571324 -1.1496475 -3.1720936
1.2602847 -1.1608138 -3.173396
1.2603132 -1.1692594 -3.1670084
1.2631779 -1.1802307 -3.1675603
1.266806 -1.191924 -3.1699483
1.2692873 -1.202628 -3.1695054
1.2693161 -1.2111319 -3.1630735
1.273423 -1.2233739 -3.1665392
1.276914 -1.2351007 -3.1684725
1.276943 -1.2436539 -3.1620033
1.279467 -1.2545433 -3.1615522
1.2811012 -1.2646261 -3.158934
1.282807 -1.2747979 -3.1564722
1.282836 -1.283389 -3.1499743
1.2828209 -1.2919376 -3.143371
1.2849668 -1.3025793 -3.1419263
1.2849959 -1.3111839 -3.1354182
1.2870395 -1.3217666 -3.1336985
1.2881826 -1.3314855 -3.1298225
1.2882117 -1.3401105 -3.123299
0.27939293 -0.35859013 -0.7185447
0.275168 -0.35607123 -0.7072529
0.26979852 -0.35226136 -0.6933688
0.26980513 -0.354221 -0.69188666
0.2670512 -0.35316408 -0.6840777
0.26353422 -0.35123244 -0.67455137
0.26354071 -0.35315093 -0.6731003
0.26136738 -0.35264486 -0.66668606
0.2592507 -0.3521738 -0.6604224
0.25925708 -0.35406417 -0.6589926
0.2580535 -0.35458505 -0.6548261
0.25603426 -0.35416168 -0.6488307
0.25496212 -0.35479617 -0.6449884
0.25496843 -0.3566583 -0.64358
0.25359172 -0.3569191 -0.6390711
0.25277254 -0.35781103 -0.63582313
0.2527788 -0.35965875 -0.63442564
0.2518081 -0.36035618 -0.6308526
0.25119308 -0.36146194 -0.6280796
0.25119928 -0.36329916 -0.62669003
0.25060225 -0.3644144 -0.62396616
0.25018942 -0.36574337 -0.6216548
0.24958067 -0.36682987 -0.6189162
0.24958685 -0.3686564 -0.61753476
0.2489649 -0.36971477 -0.6147765
0.24798535 -0.37032515 -0.61124235
0.24799149 -0.37214112 -0.6098689
0.24721666 -0.37298676 -0.6067953
0.24700989 -0.3745317 -0.60496324
0.247016 -0.37634116 -0.60359466
0.24655616 -0.3775626 -0.6012187
0.24660519 -0.37942344 -0.59994495
0.24600342 -0.38045508 -0.59727037
0.24600951 -0.38225785 -0.5959069
0.24366492 -0.38103253 -0.58950824
0.20759256 -0.3361112 -0.5110564
0.2075978 -0.3376627 -0.5098829
0.15246396 -0.26711085 -0.39142713
0.1486558 -0.26329198 -0.38243666
0.14865974 -0.2644581 -0.3815547
0.14591014 -0.26196975 -0.37485707
0.14325398 -0.25957018 -0.36838385
0.14132765 -0.25811407 -0.36347133
0.14133143 -0.2592322 -0.36262566
0.14005166 -0.25861338 -0.3590947
0.13868065 -0.2578538 -0.3553861
0.13868438 -0.25895452 -0.35455358
0.13751747 -0.25844827 -0.3512895
0.13654134 -0.25818995 -0.34843245
0.136545 -0.25927663 -0.34761056
0.13566467 -0.25913253 -0.3449657
0.1345971 -0.25871506 -0.34194452
0.13362241 -0.25841418 -0.3391246
0.13362601 -0.25948167 -0.33831722
0.13245629 -0.25888506 -0.3351136
0.13138582 -0.2584146 -0.33212397
0.13138938 -0.25946742 -0.33132768
0.1302227 -0.25883767 -0.328159
0.12924673 -0.25846818 -0.32538772
0.12925024 -0.25950694 -0.32460207
0.12817948 -0.25898018 -0.32165468
0.12720631 -0.25858232 -0.3189139
0.12623176 -0.2581697 -0.31618008
0.1262352 -0.25918868 -0.3154094
0.12545596 -0.25904673 -0.31307933
0.12448285 -0.25860575 -0.31037176
0.12448625 -0.25961322 -0.30960977
0.12370829 -0.25944647 -0.30730274
0.12283267 -0.25912216 -0.30481085
0.12283604 -0.2601188 -0.30405706
0.12196036 -0.25977728 -0.3015782
0.12118117 -0.25957182 -0.29929698
0.120402016 -0.25935626 -0.29702362
0.12040533 -0.26033694 -0.2962819
0.11953065 -0.2599582 -0.2938347
0.11875149 -0.2597166 -0.29158127
0.11875477 -0.2606864 -0.29084778
0.117879935 -0.26027954 -0.28842166
0.11719842 -0.2601656 -0.28637597
0.11642113 -0.2598914 -0.28415346
0.11642436 -0.2608459 -0.28343153
0.11574279 -0.260709 -0.28140327
0.11506121 -0.26056322 -0.27938184
0.11506441 -0.2615088 -0.27866665
0.114286035 -0.26119348 -0.27647224
0.11350761 -0.26086792 -0.2742855
0.11351077 -0.2618033 -0.27357802
0.11273316 -0.26146388 -0.27140456
0.11205235 -0.261273 -0.2694201
0.111273795 -0.26091236 -0.26725984
0.11127691 -0.26183304 -0.2665635
0.11059603 -0.2616192 -0.2645964
0.10981738 -0.26123366 -0.262455
0.109820455 -0.26214477 -0.2617659
0.10904267 -0.26174545 -0.2596377
0.10836079 -0.26149756 -0.25769362
0.10836384 -0.2623991 -0.25701174
0.107585065 -0.26197338 -0.25490075
0.10690398 -0.261704 -0.25297564
0.10612602 -0.26126 -0.2508812
0.10612901 -0.2621469 -0.2502104
0.10554474 -0.2620215 -0.24847783
0.10486271 -0.26171944 -0.24657485
0.104865685 -0.26259804 -0.24591035
0.10408758 -0.2621151 -0.2438453
0.10340632 -0.2617915 -0.2419612
0.10340926 -0.2626605 -0.24130394
0.102727965 -0.26232353 -0.23943003
0.102046646 -0.2619776 -0.23756284
0.101365276 -0.26162273 -0.23570238
0.10136817 -0.26247832 -0.23505527
0.10068677 -0.26211008 -0.23320498
0.10000459 -0.26173156 -0.23136011
0.10000746 -0.26257822 -0.23071975
0.099326745 -0.26218903 -0.22888768
0.09864522 -0.26178947 -0.22706099
0.09864806 -0.26262718 -0.22642738
0.09796648 -0.26221427 -0.22461084
0.09728488 -0.2617924 -0.22280106
0.09660325 -0.26136157 -0.22099802
0.09660604 -0.26218593 -0.22037454
0.09602213 -0.26192293 -0.21874867
0.09524342 -0.26128998 -0.2167968
0.09524617 -0.2621054 -0.21618007
0.09466144 -0.26182052 -0.21456833
0.093980424 -0.26134714 -0.2127999
0.09398315 -0.26215428 -0.21218945
0.093301326 -0.261666 -0.21042985
0.09271725 -0.26135454 -0.20884067
0.09203616 -0.26085058 -0.2070954
0.09203885 -0.26164493 -0.2064946
0.09135692 -0.26112607 -0.20475815
0.09077198 -0.260785 -0.2031889
0.09077464 -0.26157108 -0.20259438
0.09009344 -0.26103207 -0.20087567
0.08950923 -0.26067278 -0.1993227
0.08951186 -0.26145053 -0.19873443
0.088927574 -0.2610797 -0.19719012
0.08834329 -0.26070124 -0.19565162
0.08775899 -0.26031512 -0.19411893
0.08776158 -0.26108143 -0.19353935
0.08717721 -0.26068377 -0.19201529
0.08659365 -0.2602801 -0.19049837
0.08659621 -0.26103875 -0.18992457
0.08601099 -0.26062042 -0.18841375
0.08542735 -0.2601976 -0.18691127
0.08542989 -0.2609486 -0.18634327
0.084845416 -0.26051274 -0.1848482
0.08435874 -0.26026756 -0.18351293
0.08377421 -0.25981703 -0.18202896
0.08377671 -0.26055717 -0.18146917
0.08338705 -0.26049423 -0.18029782
0.08280324 -0.2600274 -0.17882858
0.08280572 -0.26076117 -0.17827362
0.08231895 -0.26048353 -0.17696299
0.08183213 -0.2601995 -0.17565714
0.08183459 -0.26092687 -0.175107
0.08134699 -0.26063168 -0.17380725
0.08095721 -0.26053488 -0.17266151
0.080373265 -0.26002535 -0.1712246
0.080375694 -0.26074314 -0.17068169
0.079888776 -0.2604272 -0.16939999
0.07940261 -0.26010653 -0.1681243
0.07940502 -0.26081797 -0.16758622
0.079015166 -0.2606931 -0.16646175
0.07852742 -0.26035386 -0.16519536
0.07804117 -0.2600115 -0.16393603
0.07804355 -0.26071396 -0.1634047
0.07755729 -0.26036206 -0.16215265
0.07707023 -0.2600021 -0.16090424
0.07707258 -0.26069823 -0.16037776
0.07668262 -0.26054016 -0.15927842
0.07619627 -0.26016656 -0.15804273
0.0761986 -0.26085693 -0.15752058
0.0758086 -0.26068547 -0.1564314
0.07532144 -0.2602949 -0.15520619
0.07493216 -0.26011425 -0.1541263
0.07493446 -0.2607963 -0.15361042
0.07454435 -0.26060623 -0.15253519
0.074057944 -0.26019642 -0.15132706
0.07406023 -0.26087272 -0.15081553
0.07367085 -0.260671 -0.14975154
0.073183574 -0.26024407 -0.14855385
0.07318584 -0.26091465 -0.14804666
0.072796434 -0.26069954 -0.14699283
0.07240616 -0.2604774 -0.14594169
0.07191967 -0.26003134 -0.14476112
0.071921915 -0.26069364 -0.1442602
0.07153244 -0.26046005 -0.14322035
0.07114296 -0.2602213 -0.14218439
0.07114518 -0.2608785 -0.14168733
0.07075568 -0.26063213 -0.14065719
0.07036615 -0.2603807 -0.13963085
0.07036836 -0.26103276 -0.13913767
0.06997882 -0.26077363 -0.13811715
0.06958924 -0.26050937 -0.13710049
0.069248624 -0.26035458 -0.13615312
0.0692508 -0.26099932 -0.13566548
0.06886074 -0.26072156 -0.13465762
0.068520546 -0.2605564 -0.13371953
0.06852271 -0.26119635 -0.13323553
0.06823054 -0.26113838 -0.13236551
0.06784134 -0.2608459 -0.13137166
0.0678435 -0.26148137 -0.13089103
0.06755076 -0.26141196 -0.13002807
0.06716102 -0.2611062 -0.12904274
0.06682026 -0.260913 -0.12812431
0.06682238 -0.2615418 -0.12764873
0.06653056 -0.2614603 -0.12679788
0.066189766 -0.2612563 -0.12588765
0.066191874 -0.26188093 -0.1254152
0.06585105 -0.26167026 -0.12451004
0.065510206 -0.26145506 -0.123608254
0.0655123 -0.26207525 -0.123139195
0.0652204 -0.26197362 -0.12230353
0.064927906 -0.2618667 -0.121470034
0.06453858 -0.26151702 -0.12051969
0.06454066 -0.2621308 -0.12005545
0.06424807 -0.26201352 -0.11922963
0.06395607 -0.2618939 -0.11840743
0.06395813 -0.26250386 -0.11794609
0.0636178 -0.2622577 -0.11706969
0.06332507 -0.26212645 -0.11625413
0.06332712 -0.26273224 -0.11579594
0.06303505 -0.26259696 -0.11498555
0.062742926 -0.26245773 -0.11417802
0.062354412 -0.26207057 -0.11325892
0.06235644 -0.26267 -0.112805545
0.06206347 -0.26251853 -0.11200475
0.06177125 -0.2623651 -0.1112078
0.061773267 -0.26296073 -0.11075732
0.061529 -0.26292464 -0.110020466
0.061187617 -0.26263562 -0.1091736
0.061189618 -0.2632274 -0.10872603
0.060896955 -0.26305768 -0.10794021
0.06060409 -0.2628836 -0.10715706
0.06041069 -0.2629641 -0.10649003
0.060412675 -0.26355076 -0.106046334
0.060313184 -0.26387253 -0.10548814
0.060163535 -0.26406178 -0.104874626
0.060165513 -0.2646468 -0.10443215
0.059968792 -0.26470932 -0.10376849
0.059670296 -0.26450104 -0.102993965
0.059672263 -0.2650828 -0.102553956
0.05938159 -0.2648894 -0.1017925
0.059140433 -0.2648237 -0.10108806
0.05927385 -0.26575187 -0.100793816
0.05927581 -0.266331 -0.1003558
0.058711115 -0.2653946 -0.099306546
0.058921535 -0.26652893 -0.09909517
0.058923487 -0.26710573 -0.09865893
1.1578213 -0.54344696 -3.3571777
1.1578479 -0.5512981 -3.3512397
1.1613796 -0.5607146 -3.355163
1.1652573 -0.57033396 -3.3600235
1.1680399 -0.57950073 -3.3617747
1.1680666 -0.58741874 -3.355786
1.1703756 -0.5964161 -3.3561716
1.1748062 -0.62235904 -3.350257
1.1771474 -0.63147646 -3.3506522
1.1771743 -0.6394537 -3.3446188
1.1792504 -0.6484813 -3.3442473
1.1813256 -0.65753525 -3.343852
1.1831315 -0.66647464 -3.342695
1.1831586 -0.67449063 -3.3366323
1.1852584 -0.6836238 -3.336254
1.1869351 -0.6925533 -3.3346968
1.1869622 -0.70059395 -3.3286154
1.188643 -0.7095584 -3.3270438
1.1886301 -0.71758735 -3.3208451
1.1886574 -0.72563875 -3.3147554
1.1889479 -0.7338423 -3.30938
1.1892741 -0.74207044 -3.304099
1.1901528 -0.7506291 -3.3003075
1.19018 -0.7586898 -3.294211
1.1903579 -0.7668417 -3.28852
1.1910161 -0.775289 -3.2841177
1.1910433 -0.7833548 -3.2780173
1.191217 -0.79151225 -3.2723088
1.1924955 -0.8003686 -3.2695506
1.1931484 -0.80884284 -3.2651117
1.1931757 -0.816922 -3.259001
1.1941426 -0.8256129 -3.2553866
1.1955498 -0.8346057 -3.2529302
1.1955771 -0.84270024 -3.2468078
1.1965309 -0.8514162 -3.2431333
1.1986736 -0.8609497 -3.2425835
1.1987011 -0.8690644 -3.2364461
1.2005388 -0.87842894 -3.235063
1.202127 -0.8876437 -3.233008
1.2039078 -0.8970144 -3.2314408
1.2039354 -0.9051628 -3.225278
1.2057433 -0.9145877 -3.223755
1.2074587 -0.92396903 -3.2219737
1.2074864 -0.93214047 -3.2157934
1.210256 -0.94233173 -3.2167172
1.2123448 -0.95205307 -3.2158532
1.2123725 -0.9602561 -3.2096488
1.2150382 -0.97045475 -3.2102394
1.2179227 -0.980855 -3.2113662
1.2205632 -0.9911051 -3.2118378
1.2205911 -0.9993617 -3.2055929
1.2237415 -1.0100626 -3.2073283
1.2263259 -1.0203577 -3.2075882
1.2263539 -1.028652 -3.201315
1.2290924 -1.0391214 -3.201928
1.2312245 -1.0491358 -3.2009754
1.2312527 -1.0574616 -3.1946783
1.2337787 -1.0678416 -3.1946895
1.2359842 -1.0779886 -3.193867
1.2385176 -1.0884384 -3.1938477
1.2385459 -1.0968118 -3.1875145
1.2408851 -1.1071463 -3.1869707
1.2435004 -1.1177471 -3.1870935
1.2435287 -1.1261529 -3.180736
1.2465144 -1.1371263 -3.181742
1.2489014 -1.1476151 -3.1812303
1.2489299 -1.1560559 -3.1748464
1.252135 -1.1673177 -3.176324
1.2550983 -1.1784053 -3.1771722
1.2583812 -1.1898192 -3.1787784
1.25841 -1.1983218 -3.1723475
1.2615284 -1.2096497 -3.1735008
1.2660662 -1.2223257 -3.1781
1.266095 -1.2308785 -3.1716313
1.2694337 -1.2425231 -3.1732368
1.2718552 -1.2533485 -3.1725762
1.2718843 -1.2619389 -3.166079
1.2739136 -1.2724373 -3.1644313
1.2755568 -1.2825911 -3.161829
1.2758576 -1.291468 -3.1559696
1.2758867 -1.3000841 -3.149453
1.2785847 -1.3113164 -3.149353
1.2811406 -1.3224432 -3.1488848
1.2811698 -1.3310935 -3.1423423
1.2819209 -1.3404658 -3.1375246
1.2764813 -1.343616 -3.1179402
1.2765104 -1.352235 -3.1114213
0.27774346 -0.35856336 -0.72141445
0.2777503 -0.3605917 -0.71988034
0.2732851 -0.3577659 -0.7079552
0.26796234 -0.3539449 -0.694087
0.26503068 -0.3526807 -0.6858043
0.26503727 -0.35462502 -0.68433374
0.2614679 -0.35259393 -0.67462665
0.25913012 -0.35189307 -0.66778606
0.2591366 -0.35379836 -0.666345
0.25716537 -0.35346603 -0.66037863
0.25569594 -0.35367873 -0.6555779
0.2557023 -0.35556123 -0.6541541
0.2537005 -0.35513204 -0.6481655
0.25265625 -0.35578498 -0.64436895
0.25126693 -0.35602245 -0.63980204
0.25127319 -0.35787553 -0.6384005
0.25047776 -0.35878474 -0.6351928
0.24967137 -0.3596704 -0.63196844
0.2496776 -0.36151287 -0.6305749
0.24889274 -0.36240825 -0.627411
0.24849178 -0.36375546 -0.62511235
0.248498 -0.36559 -0.6237248
0.24791889 -0.36671233 -0.6210363
0.24731316 -0.36779442 -0.61829466
0.24652866 -0.3686486 -0.61516356
0.24653481 -0.37047005 -0.6137859
0.24573684 -0.37129185 -0.61063707
0.244973 -0.37214586 -0.6075714
0.24497913 -0.37395692 -0.60620165
0.24456221 -0.3752338 -0.6039065
0.2438881 -0.37617862 -0.60105425
0.24345312 -0.37741965 -0.59872955
0.24345921 -0.37922052 -0.59736747
0.24308056 -0.38052547 -0.5951715
0.23979038 -0.37805322 -0.5866838
0.23979639 -0.37982982 -0.5853401
0.19745517 -0.32618555 -0.49285454
0.14980315 -0.26500022 -0.3893918
0.14980714 -0.26618358 -0.38849682
0.14675389 -0.26330566 -0.38106805
0.14431123 -0.2612027 -0.3749718
0.14198604 -0.25922525 -0.36915013
0.14198987 -0.26035696 -0.36829415
0.14010753 -0.25893357 -0.3634451
0.13884887 -0.25833443 -0.35993233
0.13885263 -0.25944537 -0.35909206
0.13739763 -0.25855154 -0.35518563
0.13624081 -0.2580503 -0.35191908
0.1362445 -0.259144 -0.35109186
0.13527693 -0.25888374 -0.34823775
0.13440597 -0.25874606 -0.34559458
0.13334392 -0.258328 -0.34256333
0.13334756 -0.2594025 -0.34175062
0.13228577 -0.25896388 -0.33873603
0.13122255 -0.25850925 -0.33572918
0.13122614 -0.2595697 -0.3349271
0.13016447 -0.2590963 -0.33193952
0.1289105 -0.25833076 -0.3285691
0.12891403 -0.25937593 -0.32777864
0.12794754 -0.25900528 -0.32501265
0.12698096 -0.25862175 -0.32225624
0.1260145 -0.25822568 -0.31950977
0.12601796 -0.25925168 -0.31873378
0.12505148 -0.2588365 -0.31600195
0.124183185 -0.25855514 -0.3134774
0.12418661 -0.25956902 -0.31271055
0.12331828 -0.25927046 -0.31019902
0.12254552 -0.259105 -0.30788708
0.12254891 -0.260108 -0.3071285
0.121584855 -0.25963554 -0.30444828
0.12081208 -0.25944334 -0.30215675
0.11994365 -0.25909385 -0.299684
0.11994698 -0.26007965 -0.29893842
0.11917534 -0.25986317 -0.2966691
0.118306756 -0.25948554 -0.2942175
0.11831006 -0.26046047 -0.2934801
0.11753832 -0.26021782 -0.29123056
0.11676652 -0.2599649 -0.28898868
0.11676978 -0.26092964 -0.28825903
0.11609386 -0.26081404 -0.2862145
0.115322016 -0.26053634 -0.28399155
0.11455013 -0.26024836 -0.28177625
0.11455334 -0.26119843 -0.28105772
0.11387738 -0.26105037 -0.2790379
0.11320231 -0.2608948 -0.27702662
0.11320549 -0.2618359 -0.27631482
0.11243344 -0.26150838 -0.27412945
0.11166136 -0.26117063 -0.2719518
0.111664504 -0.26210153 -0.2712477
0.11089329 -0.26174995 -0.26908335
0.11021713 -0.2615463 -0.26710558
0.10954185 -0.26133525 -0.26513624
0.10954495 -0.26225212 -0.26444277
0.10867668 -0.26170304 -0.2621236
0.10800132 -0.26146838 -0.26017213
0.10800439 -0.26237503 -0.2594864
0.10723206 -0.261962 -0.2573657
0.10655664 -0.2617044 -0.25543162
0.10655967 -0.26260146 -0.25475314
0.10588419 -0.26233044 -0.25282916
0.10511175 -0.26188296 -0.2507345
0.10453145 -0.26175866 -0.24899843
0.10453444 -0.26264232 -0.24833009
0.10376278 -0.26217213 -0.24625535
0.103087194 -0.26186028 -0.24436232
0.10309015 -0.26273438 -0.2437012
0.10241449 -0.26240912 -0.24181826
0.10173884 -0.262075 -0.23994216
0.10174177 -0.2629402 -0.2392878
0.10106604 -0.26259258 -0.23742175
0.10039029 -0.2622361 -0.2355625
0.09971451 -0.26187065 -0.23371
0.09971739 -0.26272243 -0.23306577
0.099041544 -0.26234356 -0.23122336
0.09836567 -0.26195577 -0.22938772
0.098368526 -0.26279864 -0.22875024
0.09769261 -0.2623974 -0.22692473
0.09701739 -0.26198864 -0.22510725
0.096341394 -0.26156956 -0.22329523
0.096344195 -0.26239902 -0.22266789
0.09557195 -0.26178768 -0.22069952
0.09499284 -0.26152653 -0.21907213
0.09499562 -0.26234704 -0.21845156
0.09431949 -0.26189223 -0.21666653
0.09364336 -0.2614285 -0.2148883
0.0936461 -0.26224008 -0.21427448
0.09296992 -0.26176295 -0.21250634
0.09229448 -0.26127833 -0.2107463
0.091715224 -0.26096874 -0.20915565
0.09171793 -0.2617676 -0.20855145
0.09113784 -0.26144493 -0.20696813
0.090462305 -0.2609304 -0.20523077
0.09046498 -0.26172096 -0.20463285
0.08978863 -0.26119152 -0.20290434
0.08920925 -0.26084235 -0.2013436
0.089211896 -0.2616246 -0.20075195
0.088631645 -0.26126233 -0.19919853
0.087956004 -0.2607045 -0.197494
0.08737734 -0.26032948 -0.19595535
0.08737994 -0.2610996 -0.19537288
0.086800426 -0.26071152 -0.19384155
0.08622087 -0.26031578 -0.192316
0.086223446 -0.2610782 -0.19173932
0.08574006 -0.2608643 -0.19037785
0.085160464 -0.26045007 -0.18886633
0.08516302 -0.2612055 -0.18829498
0.08458339 -0.26077977 -0.18679214
0.084004514 -0.26034802 -0.18529634
0.083521836 -0.26010504 -0.18395934
0.083524354 -0.26084965 -0.18339616
0.082944624 -0.2603978 -0.18191311
0.08246191 -0.26013827 -0.18058869
0.082464404 -0.26087588 -0.18003081
0.08198165 -0.2606068 -0.1787136
0.08149887 -0.2603313 -0.17740121
0.081501335 -0.2610625 -0.17684817
0.08092149 -0.26057428 -0.17539264
0.08053494 -0.26048446 -0.17424153
0.080052085 -0.26018667 -0.17294604
0.08005453 -0.26090828 -0.17240025
0.07957164 -0.26060092 -0.171112
0.07899246 -0.26008242 -0.16968177
0.07899488 -0.26079702 -0.1691413
0.07851195 -0.2604731 -0.1678656
0.07812605 -0.2603511 -0.16674125
0.07812844 -0.26105994 -0.16620511
0.0776447 -0.26071903 -0.16493985
0.07716168 -0.2603734 -0.16368054
0.07677572 -0.26023224 -0.1625707
0.076778084 -0.2609322 -0.1620413
0.07629581 -0.26057294 -0.16079475
0.07590905 -0.26041672 -0.15969393
0.075911395 -0.26111093 -0.15916888
0.07542827 -0.26073465 -0.15793274
0.07494593 -0.26035374 -0.15670261
0.07494825 -0.26104155 -0.15618238
0.074561395 -0.2608636 -0.15509793
0.07407902 -0.26046744 -0.1538794
0.073692106 -0.26027855 -0.15280314
0.0736944 -0.26095808 -0.15228918
0.073212005 -0.26054668 -0.15108226
0.07282501 -0.2603443 -0.15001608
0.07282729 -0.2610181 -0.14950648
0.072441116 -0.26081 -0.14844733
0.071957804 -0.26037565 -0.14725514
0.07196007 -0.2610437 -0.14674987
0.07157384 -0.26082218 -0.14570084
0.07118761 -0.26059556 -0.14465567
0.07080134 -0.26036382 -0.14361435
0.07080357 -0.26102418 -0.1431149
0.07041641 -0.26078275 -0.14207816
0.06993386 -0.26031473 -0.1409142
0.069936074 -0.26096937 -0.14041907
0.06959831 -0.26083001 -0.13945997
0.06916431 -0.26046082 -0.1383734
0.06916651 -0.26111037 -0.13788213
0.068779685 -0.26084375 -0.13686578
0.06839375 -0.2605742 -0.13585454
0.06810359 -0.2605263 -0.13497545
0.068105765 -0.26116884 -0.13448949
0.0677198 -0.26088718 -0.13348742
0.06738146 -0.26071414 -0.1325523
0.06738361 -0.26135188 -0.13206996
0.0670938 -0.2612887 -0.13120376
0.0667073 -0.260989 -0.13021383
0.066709444 -0.26162225 -0.12973487
0.066371486 -0.26143244 -0.12881388
0.06603353 -0.26123816 -0.12789626
0.0657436 -0.26115632 -0.12704399
0.06574572 -0.26178318 -0.12656988
0.065408245 -0.26157936 -0.12566112
0.06507023 -0.26136976 -0.12475509
0.065072335 -0.2619922 -0.12428434
0.064734295 -0.26177588 -0.12338338
0.06449282 -0.26179388 -0.122607455
0.06415474 -0.26156923 -0.12171274
0.064156815 -0.26218557 -0.12124658
0.063818686 -0.26195422 -0.1203569
0.063528515 -0.26183817 -0.11953008
0.06353059 -0.26245037 -0.11906705
0.06319304 -0.26220968 -0.11818635
0.06290344 -0.26208532 -0.11736778
0.0629055 -0.26269338 -0.116907895
0.062567286 -0.26244023 -0.11603462
0.06222978 -0.2621845 -0.11516559
0.061987918 -0.26216763 -0.1144152
0.061989952 -0.2627696 -0.1139599
0.06160472 -0.2623814 -0.113041855
0.061314154 -0.2622308 -0.1122403
0.061316174 -0.26282832 -0.111788385
0.060977828 -0.26254895 -0.11093484
0.06073664 -0.26251608 -0.11019884
0.06073865 -0.26310977 -0.10974982
0.06040023 -0.26281974 -0.10890419
0.060157556 -0.26277447 -0.10817305
0.059867248 -0.26260173 -0.10738931
0.059869237 -0.26318967 -0.106944636
0.05967586 -0.26326537 -0.10627627
0.059530854 -0.26346564 -0.10566498
0.059532832 -0.26405135 -0.105222
0.05943324 -0.26436874 -0.104664244
0.05923509 -0.26442382 -0.10399661
0.059237063 -0.26500753 -0.103555135
0.058944713 -0.2648081 -0.10278546
0.058700826 -0.26473406 -0.10207252
0.05841403 -0.26454207 -0.10131461
0.058415983 -0.26512036 -0.10087724
0.05867864 -0.2663991 -0.10072539
0.058063596 -0.26531723 -0.0996141
0.058065545 -0.26589316 -0.09917849
0.0583119 -0.26713052 -0.09900692
1.185948 -0.74214655 -3.325804
1.1859754 -0.75024694 -3.3196776
1.1865468 -0.7586736 -3.315032
1.1877736 -0.76750517 -3.3121617
1.187801 -0.775617 -3.3060265
1.1893927 -0.7846988 -3.3041255
1.1895953 -0.7929308 -3.298456
1.1896229 -0.8010542 -3.2923117
1.1900226 -0.809416 -3.2871697
1.1902106 -0.8176456 -3.2814553
1.1911577 -0.82637334 -3.2777746
1.1911852 -0.8345065 -3.2716231
1.1921794 -0.84328395 -3.2680542
1.1934692 -0.8522734 -3.265264
1.1934967 -0.86042136 -3.2591014
1.1949862 -0.86957276 -3.2568212
1.1965464 -0.8787928 -3.2547143
1.196574 -0.8869607 -3.2485366
1.1976198 -0.8958479 -3.2450478
1.1991554 -0.9050979 -3.2428393
1.2004985 -0.9142292 -3.2401092
1.2005261 -0.92242277 -3.2339122
1.2024108 -0.9319772 -3.232581
1.2049007 -0.9420042 -3.2328138
1.2049285 -0.95022655 -3.226595
1.2063512 -0.95949906 -3.2240105
1.2086611 -0.9694639 -3.223718
1.208689 -0.9777107 -3.2174804
1.21152 -0.9881237 -3.2185025
1.21353 -0.99793404 -3.217374
1.2162205 -1.0083057 -3.2179813
1.2162485 -1.016602 -3.2117066
1.2186582 -1.0268023 -3.2115512
1.2210288 -1.0370023 -3.2112708
1.2210569 -1.0453303 -3.204972
1.2237624 -1.0558518 -3.2055123
1.2261451 -1.066142 -3.2052014
1.2261734 -1.0745032 -3.1988776
1.2280807 -1.0844417 -3.1973248
1.2305074 -1.094844 -3.1970677
1.2333184 -1.1056061 -3.197759
1.2333468 -1.1140144 -3.1913996
1.2355973 -1.1243464 -3.1906362
1.2383335 -1.1351316 -3.1910706
1.238362 -1.1435728 -3.1846864
1.241019 -1.1543419 -3.184882
1.2441287 -1.1655499 -3.1861815
1.2441573 -1.174029 -3.1797683
1.2466865 -1.1847726 -3.1795766
1.250292 -1.196531 -3.1820314
1.2537493 -1.208201 -3.1840827
1.2537781 -1.2167434 -3.1776218
1.2584435 -1.2296076 -3.1826022
1.2620159 -1.2415073 -3.1848435
1.262045 -1.2501041 -3.1783414
1.2643926 -1.2609085 -3.1775253
1.2666651 -1.2716714 -3.1765018
1.2683456 -1.2818924 -3.1740093
1.2683748 -1.2905307 -3.1674757
1.2691363 -1.2998855 -3.1627235
1.2723943 -1.3117095 -3.1640222
1.2724236 -1.320374 -3.1574688
1.275464 -1.3320451 -3.1581929
1.2751313 -1.340366 -3.150751
1.2751608 -1.3490481 -3.1441846
1.2690893 -1.3515178 -3.1229677
0.27541673 -0.35983908 -0.7211768
0.2715078 -0.35759562 -0.71045685
0.26608628 -0.35363966 -0.6962367
0.26609293 -0.35560727 -0.6947486
0.2629769 -0.35410514 -0.68598366
0.25943875 -0.35208973 -0.676269
0.25944525 -0.354013 -0.67481434
0.25697464 -0.35313457 -0.6676251
0.254861 -0.35262948 -0.66128564
0.2548674 -0.35452217 -0.6598542
0.2533763 -0.35469136 -0.6549787
0.25154334 -0.35444507 -0.649334
0.25034672 -0.35491514 -0.645165
0.25035304 -0.35677764 -0.6437564
0.2489738 -0.3570088 -0.6391894
0.2481587 -0.35788956 -0.6359196
0.24816494 -0.3597374 -0.634522
0.24719167 -0.3604125 -0.6309066
0.2466004 -0.36153448 -0.6281641
0.24660662 -0.3633718 -0.6267745
0.24619314 -0.36469832 -0.62444097
0.2456198 -0.36582366 -0.621753
0.24502099 -0.36690995 -0.61901385
0.24502715 -0.36873662 -0.6176323
0.24425262 -0.36959243 -0.6145108
0.24348457 -0.37044594 -0.61141163
0.24349071 -0.37226227 -0.61003786
0.24273354 -0.37311417 -0.60697454
0.24228369 -0.3743463 -0.6045977
0.2422898 -0.3761545 -0.60323006
0.24141006 -0.3768259 -0.59991515
