ply
format ascii 1.0
element vertex 1391
property float x
property float y
property float z
end_header
0.5090821 -0.1049985 -0.1857871
0.5074378 -0.1043016 -0.18340325
0.50579494 -0.10358794 -0.18102467
0.5055667 -0.10423118 -0.18055822
0.50380504 -0.103373796 -0.17802441
0.5020486 -0.10250167 -0.17550136
0.5004238 -0.101740144 -0.17315917
0.50020325 -0.10236184 -0.17270835
0.49852312 -0.10151709 -0.17029679
0.49697366 -0.10078529 -0.16806419
0.4967579 -0.10139344 -0.16762319
0.4952141 -0.10064098 -0.16540304
0.49411568 -0.100330114 -0.16378222
0.49308276 -0.100075364 -0.16225116
0.49287224 -0.1006687 -0.1618209
0.49215513 -0.10072942 -0.16071439
0.4913195 -0.100657955 -0.15945116
0.49111095 -0.10124572 -0.15902494
0.49108577 -0.10202998 -0.15884277
0.490871 -0.102612264 -0.15840802
0.49066216 -0.10320091 -0.15798116
0.49076474 -0.10412969 -0.15796767
0.49086434 -0.105059505 -0.15794945
0.491153 -0.10620267 -0.15818089
0.49094218 -0.106796876 -0.15775001
0.4910459 -0.10774333 -0.15773499
0.4913876 -0.108962364 -0.15803356
0.49117523 -0.109560914 -0.15759952
0.49169987 -0.11100037 -0.15813716
0.49233884 -0.11258143 -0.1588234
0.49212363 -0.11318797 -0.15838356
0.49276304 -0.114787795 -0.15906714
0.49339697 -0.11639336 -0.15974121
0.49420777 -0.11821926 -0.16064511
0.49398765 -0.11883964 -0.16019525
0.4946747 -0.12054039 -0.16093305
0.49541715 -0.12232071 -0.16174093
0.49519366 -0.122950606 -0.16128415
0.49587142 -0.12467352 -0.1620037
0.49636906 -0.12618986 -0.16248596
0.49614263 -0.12682807 -0.16202316
0.4965163 -0.12820731 -0.16234118
0.49689054 -0.12959616 -0.16265835
0.49714097 -0.13083926 -0.16281314
0.49691147 -0.13148613 -0.16234405
0.49727634 -0.1328846 -0.16264506
0.4976404 -0.13429108 -0.16294347
0.49740872 -0.13494411 -0.16246992
0.49765134 -0.13620776 -0.16260903
0.49789232 -0.13747643 -0.16274464
0.49765888 -0.1381344 -0.1622675
0.49789724 -0.13941051 -0.16239776
0.49824962 -0.14084417 -0.16267334
0.4984855 -0.14213242 -0.16279759
0.4982492 -0.14279841 -0.16231464
0.49847966 -0.14409031 -0.16242988
0.49870962 -0.14538886 -0.16254319
0.49847156 -0.1460598 -0.16205665
0.49881357 -0.14752223 -0.16231108
0.49903756 -0.14883195 -0.16241334
0.49879757 -0.14950842 -0.16192278
0.49890482 -0.15066698 -0.16187431
0.49912694 -0.15199147 -0.16197087
0.49945986 -0.15347902 -0.16220686
0.4992172 -0.1541629 -0.16171093
0.49943244 -0.1554971 -0.16179518
0.49964586 -0.15683623 -0.16187586
0.49940148 -0.15752503 -0.16137637
0.49949956 -0.15870857 -0.16130926
0.4997079 -0.16005804 -0.16138029
0.499462 -0.16075115 -0.16087767
0.49966976 -0.16211094 -0.16094586
0.49998778 -0.16364117 -0.16115123
0.50019085 -0.16501004 -0.16121063
0.4999421 -0.16571115 -0.16070221
0.5002548 -0.16725609 -0.16089681
0.5004523 -0.16863622 -0.16094548
0.5002015 -0.16934286 -0.16043305
0.50039726 -0.17073183 -0.16047755
0.5004798 -0.17195444 -0.16037963
0.50022763 -0.17266539 -0.1598641
0.50041914 -0.17406595 -0.15990002
0.50049895 -0.17529958 -0.15979591
0.5006864 -0.17670812 -0.15982418
0.5004318 -0.17742585 -0.15930372
0.5006168 -0.17884196 -0.15932679
0.50069153 -0.18008974 -0.15921241
0.50043535 -0.18081178 -0.15868881
0.5006163 -0.18223973 -0.15870354
0.500687 -0.18349634 -0.15858123
0.5004293 -0.18422268 -0.15805452
0.5006068 -0.18566349 -0.15806165
0.50078183 -0.18710811 -0.15806441
0.50095665 -0.18856004 -0.15806533
0.5006963 -0.18929377 -0.15753327
0.5009758 -0.19093311 -0.15765977
0.50114644 -0.19239876 -0.15765187
0.5008841 -0.19313805 -0.15711579
0.5010527 -0.19461201 -0.1571032
0.5014299 -0.19645163 -0.15734227
0.50170004 -0.19811861 -0.15744947
0.50143445 -0.1988671 -0.1569067
0.5016974 -0.2005365 -0.15700245
0.50185746 -0.2020355 -0.15697221
0.50158995 -0.20278952 -0.15642543
0.50206244 -0.20485395 -0.15676895
0.50190026 -0.20580247 -0.15634735
0.50163096 -0.20656143 -0.15579699
0.5007294 -0.20618275 -0.15448926
0.49993777 -0.20599084 -0.15331532
0.49904343 -0.20560196 -0.15202051
0.49877787 -0.20635048 -0.15147774
0.49788684 -0.20594932 -0.1501902
0.49710247 -0.20573317 -0.14903177
0.4968393 -0.2064749 -0.1484939
0.49595422 -0.20605521 -0.14721888
0.4950729 -0.20563029 -0.14595056
0.49481234 -0.20636463 -0.14541803
0.49403673 -0.20612177 -0.14427786
0.49316117 -0.20567797 -0.14302184
0.49239075 -0.20542327 -0.14189167
0.4921337 -0.20614775 -0.14136632
0.491468 -0.2060804 -0.14036185
0.49070334 -0.20581199 -0.13924305
0.49044827 -0.20653094 -0.1387217
0.48968634 -0.20625222 -0.13760896
0.4889266 -0.20596738 -0.1365007
0.48867372 -0.20668016 -0.13598382
0.48791724 -0.20638607 -0.13488224
0.48716295 -0.20608582 -0.13378513
0.48641026 -0.20577818 -0.1326918
0.48616064 -0.20648175 -0.1321816
0.48541176 -0.20616607 -0.13109563
0.48466578 -0.20584555 -0.13001488
0.48441833 -0.20654298 -0.12950915
0.4837735 -0.20641632 -0.12854744
0.4829338 -0.20587474 -0.12736402
0.48268852 -0.206566 -0.12686275
0.4819506 -0.2062196 -0.12579913
0.4812156 -0.20586842 -0.12474072
0.4805795 -0.20571709 -0.12379685
0.4803373 -0.20639972 -0.12330184
0.47960612 -0.20603094 -0.12225262
0.47878113 -0.2054484 -0.12109921
0.47854134 -0.20612426 -0.12060911
0.47781655 -0.20574099 -0.1195723
0.47709477 -0.20535327 -0.118540816
0.47685716 -0.20602298 -0.11805517
0.47613785 -0.20562437 -0.11702954
0.47541994 -0.2052178 -0.11600744
0.47470495 -0.20480672 -0.11499066
0.47447062 -0.2054672 -0.114511706
0.47375888 -0.20504689 -0.113501616
0.47304854 -0.20461856 -0.112495095
0.47281638 -0.20527288 -0.11202061
0.47220495 -0.20505516 -0.11112655
0.47150066 -0.20461385 -0.11013163
0.47127047 -0.20526265 -0.10966116
0.4706629 -0.20503035 -0.10877571
0.46996382 -0.2045743 -0.107791506
0.46936002 -0.20433164 -0.10691371
0.4691327 -0.20497242 -0.10644905
0.4684396 -0.20450327 -0.10547634
0.4679335 -0.20447062 -0.10470925
0.4677079 -0.20510647 -0.104248166
0.4671124 -0.20484722 -0.10338609
0.4666098 -0.20480475 -0.10262616
0.46638575 -0.20543629 -0.102168195
0.46579406 -0.20516457 -0.10131424
0.4652497 -0.20500048 -0.100512825
0.46466136 -0.20471922 -0.09966576
0.4644398 -0.20534366 -0.09921294
0.4638997 -0.20516928 -0.09841988
0.46340623 -0.20510434 -0.097678065
0.46318612 -0.20572479 -0.09722814
0.46264973 -0.20553999 -0.096442685
0.46211454 -0.20535007 -0.09566003
0.4618959 -0.20596623 -0.09521322
0.46136338 -0.20577075 -0.09443561
0.46083203 -0.2055701 -0.09366079
0.4602583 -0.20525041 -0.09284298
0.4600421 -0.2058598 -0.09240109
0.45951506 -0.20564917 -0.09163472
0.4590332 -0.2055499 -0.09091688
0.4588184 -0.20615529 -0.09047788
0.4582956 -0.2059355 -0.08971959
0.45777395 -0.20571043 -0.08896404
0.4575607 -0.20631152 -0.08852815
0.45699805 -0.20596224 -0.08773273
0.45652366 -0.20584464 -0.08702969
0.4560506 -0.20572336 -0.08632934
0.4558395 -0.2063183 -0.085897915
0.45528322 -0.20595498 -0.08511476
0.4547277 -0.20558412 -0.08433421
0.45451838 -0.20617415 -0.083906345
0.45400915 -0.20591906 -0.083175294
0.4535857 -0.20589833 -0.08253232
0.45303667 -0.20551378 -0.081764154
0.4528295 -0.20609769 -0.08134073
0.45228392 -0.2057082 -0.08057873
0.45173967 -0.20531277 -0.079819925
0.45153424 -0.2058918 -0.07940004
0.4510761 -0.20573275 -0.07872936
0.45061997 -0.20557219 -0.078062095
0.45041585 -0.20614754 -0.077644885
0.44983703 -0.20561182 -0.07685892
0.44934165 -0.20531355 -0.07615694
0.44885004 -0.20501763 -0.07546024
0.44864842 -0.20558594 -0.075048134
0.44820002 -0.20540753 -0.07439591
0.44775504 -0.20523196 -0.07374842
0.4475547 -0.20579663 -0.073338956
0.44710863 -0.20560628 -0.07269248
0.4466686 -0.20542689 -0.07205322
0.44646955 -0.20598792 -0.071646385
0.4459931 -0.20568353 -0.07097441
0.4454787 -0.2052514 -0.07026791
0.44501212 -0.20495969 -0.06960864
0.44481537 -0.20551421 -0.069206536
0.4445103 -0.20572391 -0.06870217
0.4441002 -0.20559381 -0.06809959
0.44390434 -0.20614587 -0.06769926
0.4437691 -0.20689385 -0.067355596
0.44344974 -0.20704556 -0.06683997
0.44325402 -0.20759712 -0.06644
0.44277966 -0.20723395 -0.065781996
0.44225928 -0.20670955 -0.06508325
0.44191325 -0.20675236 -0.06454687
0.44171962 -0.20729807 -0.064151146
0.4413446 -0.20723584 -0.06358968
0.44036722 -0.20513895 -0.062480997
0.44017628 -0.20567709 -0.06209076
0.4401718 -0.20684963 -0.061869103
0.92419636 -0.3082399 -0.7882506
0.9138833 -0.30487832 -0.77301735
0.9130435 -0.3072454 -0.77130085
0.9034192 -0.30416012 -0.7570755
0.8957636 -0.30221322 -0.74566853
0.89494807 -0.30451185 -0.7440017
0.8870333 -0.30228978 -0.73224634
0.8803313 -0.30076978 -0.72222704
0.8726039 -0.29852185 -0.71076417
0.8718195 -0.30073264 -0.709161
0.8646597 -0.2987452 -0.6985228
0.8577598 -0.29686046 -0.6882652
0.85699505 -0.29901585 -0.68670225
0.85020536 -0.29710463 -0.67661893
0.8434236 -0.29513213 -0.6665587
0.84267795 -0.29723388 -0.6650346
0.8370453 -0.2959558 -0.656614
0.8311426 -0.29443496 -0.64782256
0.82606524 -0.29343638 -0.6402045
0.8253425 -0.29547366 -0.6387272
0.82053316 -0.2945932 -0.63149965
0.81604713 -0.29389915 -0.6247349
0.8153369 -0.29590103 -0.6232832
0.8110998 -0.29532483 -0.6168796
0.8071645 -0.29493064 -0.6109065
0.8035076 -0.29470623 -0.6053305
0.80281293 -0.29666415 -0.6039107
0.7988951 -0.29619208 -0.5979788
0.7960563 -0.29650244 -0.5935627
0.79537034 -0.29843587 -0.5921607
0.79130554 -0.29776323 -0.58603907
0.78674394 -0.2966651 -0.5792311
0.78606975 -0.29856533 -0.57785314
0.779951 -0.29617047 -0.56888723
0.77459615 -0.29431868 -0.56099683
0.76265955 -0.28714177 -0.54395765
0.76202035 -0.28894338 -0.54265124
0.7452914 -0.27767155 -0.5189898
0.69231516 -0.23653914 -0.4450402
0.6917884 -0.23802383 -0.4439636
0.5448738 -0.11793384 -0.23997067
0.5336748 -0.10960871 -0.22427124
0.5334074 -0.11036229 -0.22372478
0.52803683 -0.10678509 -0.21612117
0.5263046 -0.10625553 -0.21355614
0.52340627 -0.10470422 -0.20938444
0.5231542 -0.10541469 -0.20886925
0.52171147 -0.10508557 -0.20671271
0.5198892 -0.10440804 -0.20403607
0.5196417 -0.105105504 -0.20353031
0.5183486 -0.10487058 -0.20158662
0.51719195 -0.10474518 -0.1998328
0.5169478 -0.10543339 -0.19933374
0.5157944 -0.10529385 -0.19758749
0.5145166 -0.10502877 -0.19567272
0.5132406 -0.104752295 -0.19376281
0.51300144 -0.105426334 -0.19327402
0.5117306 -0.105135 -0.19137472
0.51033485 -0.104712844 -0.18930721
0.5100995 -0.1053764 -0.18882604
0.50845355 -0.10469304 -0.18642133
0.5068156 -0.10399918 -0.1840308
0.506585 -0.1046492 -0.18355945
0.5049511 -0.103932016 -0.18117937
0.5033237 -0.10320282 -0.1788113
0.5015115 -0.10227293 -0.17619565
0.5012884 -0.102901705 -0.17573969
0.49973574 -0.102200225 -0.17348146
0.49806222 -0.10135946 -0.17106272
0.49784392 -0.10197469 -0.17061658
0.49630186 -0.10123911 -0.16838074
0.49482802 -0.10055597 -0.16624026
0.4946142 -0.10115857 -0.16580328
0.4933939 -0.10071393 -0.16400923
0.49236497 -0.10045616 -0.16247545
0.49146563 -0.100323886 -0.16111803
0.4912562 -0.100914136 -0.16069002
0.49048263 -0.10090203 -0.15950404
0.4902718 -0.101486914 -0.15907486
0.49006337 -0.102074355 -0.15864888
0.48972714 -0.102522664 -0.15805162
0.48994848 -0.103579864 -0.15820107
0.48973954 -0.1041688 -0.157774
0.48965856 -0.104899645 -0.15751788
0.4899429 -0.10603994 -0.15774904
0.49010548 -0.10705045 -0.15781662
0.48989475 -0.10764437 -0.15738593
0.49029472 -0.1089327 -0.15776804
0.49081537 -0.110367686 -0.158309
0.49060225 -0.11096838 -0.1578734
0.4911175 -0.11241285 -0.15840447
0.49175274 -0.11400749 -0.15909262
0.49153677 -0.114616185 -0.15865122
0.49210793 -0.116153605 -0.15925132
0.49279368 -0.117838435 -0.1600008
0.49341595 -0.11946064 -0.16066417
0.4931954 -0.12008225 -0.16021343
0.49387556 -0.12179281 -0.1609497
0.4945488 -0.12350816 -0.16167447
0.49432498 -0.124139 -0.16121702
0.4948193 -0.12565397 -0.16170318
0.49530905 -0.12717392 -0.16218142
0.49508262 -0.12781216 -0.1617186
0.4954519 -0.12919709 -0.1620361
0.4957017 -0.13044032 -0.16219568
0.49606454 -0.13183418 -0.16250177
0.49583504 -0.13248105 -0.16203268
0.49619618 -0.13388607 -0.16233402
0.49643755 -0.13514555 -0.16247778
0.49620607 -0.13579796 -0.16200466
0.496562 -0.13721791 -0.16229537
0.49679735 -0.13848843 -0.16242783
0.4965639 -0.1391464 -0.16195069
0.49691457 -0.14058115 -0.16223067
0.49703047 -0.14171095 -0.16220501
0.49737567 -0.14315479 -0.16247496
0.49713936 -0.14382078 -0.16199201
0.49736702 -0.14511827 -0.16210778
0.49759153 -0.14641881 -0.1622182
0.4973535 -0.14708975 -0.16173168
0.49757665 -0.1483994 -0.16183832
0.49779797 -0.14971389 -0.16194129
0.49813086 -0.15119208 -0.16218613
0.49789 -0.15187103 -0.1616938
0.49810657 -0.1531983 -0.16178724
0.49832028 -0.1545289 -0.16187565
0.49807763 -0.15521279 -0.16137972
0.49828878 -0.15655078 -0.16146281
0.498387 -0.1577326 -0.16140068
0.49814284 -0.1584208 -0.16090162
0.49834877 -0.15976898 -0.1609749
0.49855506 -0.16112524 -0.16104731
0.49886996 -0.16265 -0.16125606
0.49862295 -0.16334619 -0.16075122
0.49882364 -0.16471386 -0.16081296
0.4991343 -0.16625492 -0.1610123
0.49888533 -0.16695663 -0.16050346
0.49897113 -0.16816899 -0.16041672
0.49927562 -0.16972244 -0.16060437
0.4990249 -0.17042911 -0.16009194
0.49910676 -0.17165157 -0.15999731
0.4992958 -0.17304696 -0.16003618
0.4993747 -0.17427722 -0.15993556
0.4991218 -0.17499003 -0.15941866
0.49919865 -0.1762257 -0.15931395
0.499491 -0.17781086 -0.15947726
0.49923635 -0.17852859 -0.1589568
0.49920043 -0.17959899 -0.15870875
0.49938074 -0.18102373 -0.15872885
0.4991248 -0.18174516 -0.1582057
0.4991941 -0.18299964 -0.158086
0.4994779 -0.18461351 -0.158231
0.49954423 -0.18587682 -0.15810521
0.49928588 -0.18660499 -0.15757716
0.49956548 -0.18823436 -0.15771289
0.49973562 -0.18968922 -0.15771198
0.4994753 -0.19042294 -0.15717992
0.49974987 -0.1920675 -0.15730524
0.4998102 -0.1933551 -0.15716578
0.4995481 -0.19409376 -0.15663014
0.499712 -0.19556956 -0.1566158
0.4999804 -0.19723521 -0.15672778
0.5001391 -0.19871897 -0.15670408
0.49987414 -0.19946566 -0.15616262
0.500449 -0.20169728 -0.15664323
0.50092024 -0.2037608 -0.15699513
0.5006521 -0.20451671 -0.15644698
0.5005942 -0.20565051 -0.15615368
0.49980026 -0.20545861 -0.15496892
0.49953273 -0.20621267 -0.1544221
0.49874404 -0.20601507 -0.15324645
0.49806172 -0.20600252 -0.15220073
0.49707052 -0.20541179 -0.1507849
0.49680647 -0.20615597 -0.15024525
0.49612957 -0.20613 -0.1492103
0.49524856 -0.20571306 -0.14793235
0.4949867 -0.20645109 -0.14739716
0.4941097 -0.20602314 -0.14612728
0.49323523 -0.2055878 -0.14486276
0.492976 -0.20631844 -0.14433295
0.49220687 -0.2060672 -0.14319694
0.49133933 -0.20561507 -0.141946
0.49057585 -0.20535296 -0.14082067
0.49032012 -0.20607378 -0.14029798
0.48965928 -0.20599796 -0.13929674
0.48890054 -0.20572007 -0.13818151
0.48864678 -0.20643534 -0.13766283
0.48789126 -0.2061482 -0.13655426
0.48713794 -0.20585494 -0.13545018
0.48688638 -0.20656404 -0.13493596
0.48613635 -0.20626152 -0.13383855
0.4853885 -0.20595284 -0.13274562
0.48464343 -0.20563923 -0.13165782
0.48439512 -0.2063391 -0.1311503
0.48375094 -0.2062186 -0.1301827
0.48301116 -0.20589031 -0.12910564
0.4827648 -0.20658465 -0.12860215
0.48202705 -0.20624451 -0.12753038
0.4812921 -0.20589957 -0.12646377
0.48104793 -0.20658775 -0.12596473
0.4803169 -0.20623487 -0.12490557
0.47968405 -0.20608225 -0.12396113
0.47886014 -0.2055081 -0.122799195
0.47861925 -0.20618705 -0.12230685
0.47789457 -0.20580988 -0.12126182
0.47717345 -0.20542957 -0.12022284
0.47693476 -0.20610237 -0.11973496
0.47621623 -0.20571138 -0.1187019
0.4754999 -0.20531425 -0.11767332
0.4748805 -0.20512317 -0.11675644
0.47464484 -0.20578735 -0.11627481
0.4738386 -0.20516002 -0.11514961
0.4731306 -0.204743 -0.11413745
0.47289735 -0.2054004 -0.11366073
0.47209743 -0.20475516 -0.11254842
0.47148776 -0.20453611 -0.111651525
0.4712567 -0.20518737 -0.11117927
0.4706497 -0.20496099 -0.11028779
0.47004446 -0.20472977 -0.109399915
0.46934834 -0.2042752 -0.108412765
0.46912012 -0.20491843 -0.10794633
0.46842733 -0.20445465 -0.10696587
0.4678294 -0.20420672 -0.10609223
0.46760315 -0.20484442 -0.10562982
0.46709946 -0.20481078 -0.10486227
0.46650568 -0.20455116 -0.103997126
0.46628097 -0.20518453 -0.103537835
0.46569043 -0.20491907 -0.102678716
0.4651921 -0.20487206 -0.10192182
0.4646498 -0.20470895 -0.101118326
0.46442735 -0.20533587 -0.100663714
0.4638423 -0.20505331 -0.09981606
0.46330392 -0.20487909 -0.0990206
0.46308312 -0.2055014 -0.098569326
0.46254736 -0.20532157 -0.097778894
0.4620128 -0.20513664 -0.09699125
0.46179354 -0.20575464 -0.0965431
0.46126163 -0.20556408 -0.095760494
0.46073127 -0.20536928 -0.09498102
0.46024656 -0.20528556 -0.0942517
0.46002948 -0.20589739 -0.093808025
0.459415 -0.20546043 -0.09294306
0.4589332 -0.20536472 -0.092220366
0.45871776 -0.20597194 -0.09178004
0.45819515 -0.20575589 -0.09101628
0.45771748 -0.20565261 -0.09030129
0.45750347 -0.20625584 -0.08986386
0.4569418 -0.20591307 -0.08906302
0.45642468 -0.20568237 -0.08831033
0.4559091 -0.20544751 -0.08756083
0.45569748 -0.20604399 -0.08712828
0.4552274 -0.20592277 -0.08642821
0.4546731 -0.20555888 -0.08564241
0.45446298 -0.20615107 -0.085212976
0.45395312 -0.20589805 -0.084475584
0.4534459 -0.20564373 -0.08374241
0.45323732 -0.20623162 -0.08331609
0.45277452 -0.20609151 -0.08263054
0.45227125 -0.20582749 -0.081905164
0.45172745 -0.20543753 -0.08114023
0.45152113 -0.206019 -0.08071858
0.45093736 -0.20549734 -0.079916045
0.45048174 -0.20534077 -0.07924448
0.4502771 -0.20591764 -0.07882617
0.44978252 -0.20563428 -0.07811769
0.44924757 -0.20522164 -0.077370465
0.44904453 -0.20579392 -0.07695548
0.44855225 -0.20549469 -0.07625336
0.44806373 -0.20519787 -0.07555655
0.44757712 -0.204898 -0.07486324
0.44737634 -0.20546389 -0.07445288
0.44693318 -0.20528421 -0.07380458
0.44657215 -0.205351 -0.07323812
0.44637248 -0.20591384 -0.07282997
0.44589454 -0.20560788 -0.072151124
0.44541898 -0.20530032 -0.07147615
0.44522077 -0.20585896 -0.07107104
0.44475025 -0.20555413 -0.070403375
0.44424883 -0.20514171 -0.06970753
0.44394538 -0.20535386 -0.06920328
0.44374904 -0.20590729 -0.068801954
0.44334242 -0.20578021 -0.0682004
0.44320822 -0.20653228 -0.0678587
0.44301227 -0.20708457 -0.06745822
0.44269538 -0.20723927 -0.06694363
0.44228506 -0.20708132 -0.06634193
0.44209003 -0.20763099 -0.06594333
0.44155234 -0.20703687 -0.0652246
0.44120893 -0.20708275 -0.06468888
0.44083068 -0.2070061 -0.06412178
0.44063756 -0.20755042 -0.063727066
0.43964383 -0.20536713 -0.062594354
0.43964002 -0.20654587 -0.06237609
0.43944862 -0.20708536 -0.06198489
0.92189187 -0.30712008 -0.7905767
0.9210374 -0.30952847 -0.7888303
0.9107785 -0.30614477 -0.77358705
0.901191 -0.3030774 -0.7593245
0.9003648 -0.30540597 -0.75763595
0.89274853 -0.30344304 -0.7462218
0.8848637 -0.3012355 -0.7344363
0.8781865 -0.29972756 -0.7243918
0.8773913 -0.301969 -0.72276646
0.86970407 -0.29970467 -0.71129626
0.86257124 -0.29773033 -0.70063084
0.86179686 -0.2999129 -0.69904816
0.8549326 -0.29801363 -0.688784
0.8481686 -0.29611486 -0.6786748
0.84741336 -0.29824346 -0.67713124
0.84066683 -0.29625663 -0.6670645
0.83505505 -0.2949887 -0.65862286
0.8291745 -0.2934786 -0.64980906
0.8284448 -0.2955354 -0.6483176
0.82339305 -0.29452637 -0.64069486
0.81860137 -0.29365444 -0.63344955
0.8178851 -0.29567334 -0.63198555
0.8134213 -0.29497018 -0.62521666
0.8091995 -0.2944014 -0.61879766
0.8084949 -0.29638734 -0.61735755
0.8045788 -0.29598534 -0.611381
0.80093944 -0.29575378 -0.6058017
0.7970357 -0.2952885 -0.5998556
0.79634625 -0.29723176 -0.5984464
0.7935202 -0.29753685 -0.59402806
0.78947026 -0.2968714 -0.5878915
0.78878975 -0.29878938 -0.5865007
0.78425145 -0.29768175 -0.5796885
0.7781566 -0.29529855 -0.57069844
0.7774913 -0.29717374 -0.5693386
0.77216476 -0.2953104 -0.561443
0.7602964 -0.28810567 -0.5443913
0.74363863 -0.27686843 -0.5206581
0.74302584 -0.2785957 -0.51940554
0.6903677 -0.23733348 -0.44539756
0.5441041 -0.11755982 -0.24074757
0.5438187 -0.11836421 -0.24016428
0.5326863 -0.11001189 -0.22445261
0.52733856 -0.106445774 -0.21682599
0.52707964 -0.10717552 -0.2162968
0.5253564 -0.10664227 -0.21373013
0.52247435 -0.10508433 -0.20955545
0.521037 -0.10475781 -0.2073935
0.5207869 -0.10546268 -0.20688236
0.5189743 -0.104781196 -0.20420395
0.51768595 -0.104548566 -0.20225549
0.5174402 -0.1052411 -0.2017533
0.51628923 -0.10511339 -0.19999844
0.51514 -0.10497585 -0.19824803
0.51489735 -0.10565975 -0.1977521
0.513626 -0.10539203 -0.19583614
0.51235646 -0.105112925 -0.19392504
0.51109034 -0.10482387 -0.19202097
0.51085293 -0.10549298 -0.19153577
0.5094645 -0.10506786 -0.18946692
0.5078251 -0.104387656 -0.18705568
0.5075921 -0.10504443 -0.18657942
0.50596297 -0.10434695 -0.18418726
0.50433564 -0.10363292 -0.18180065
0.5041075 -0.10427616 -0.1813342
0.50248885 -0.10354333 -0.1789645
0.50068676 -0.10260933 -0.17634699
0.49914026 -0.10191086 -0.17408253
0.4989195 -0.10253317 -0.17363125
0.49725524 -0.101688616 -0.17121081
0.4957193 -0.100956045 -0.16896869
0.49550334 -0.1015648 -0.16852726
0.49403757 -0.10087837 -0.16638531
0.492822 -0.10043604 -0.16458647
0.49179694 -0.100180134 -0.1630488
0.49158633 -0.10077377 -0.16261834
0.49069142 -0.10063968 -0.1612601
0.48992047 -0.100628875 -0.16007142
0.48971206 -0.101216316 -0.15964542
0.48950127 -0.10180121 -0.15921624
0.48916563 -0.102249816 -0.15861838
0.48895743 -0.10283661 -0.15819286
0.489176 -0.10389496 -0.15834282
0.48909438 -0.1046255 -0.15808731
0.48937637 -0.10576465 -0.15832086
0.48916632 -0.106356695 -0.15789154
0.48932645 -0.10736821 -0.15795957
0.4897235 -0.1086551 -0.15834466
0.4895117 -0.109252095 -0.15791173
0.4900275 -0.110689074 -0.15845358
0.49053922 -0.11213182 -0.15898821
0.4903248 -0.1127362 -0.15854993
0.49095434 -0.11433316 -0.15923911
0.49152166 -0.11586872 -0.15984309
0.49220297 -0.1175514 -0.16059703
0.49198395 -0.11816871 -0.16014938
0.49260062 -0.119793214 -0.1608138
0.49327633 -0.121501625 -0.16155455
0.49305415 -0.12212785 -0.16110043
0.49372137 -0.123845674 -0.16182631
0.49421212 -0.12535891 -0.16231604
0.493987 -0.12599345 -0.1618559
0.4944719 -0.12751539 -0.16233502
0.49483824 -0.12889889 -0.16265552
0.49508566 -0.13014096 -0.1628175
0.49485725 -0.13078476 -0.16235064
0.49521607 -0.13218027 -0.16265747
0.49557424 -0.13358386 -0.16296178
0.49534363 -0.13423382 -0.16249046
0.49558178 -0.1354946 -0.1626348
0.49593475 -0.1369131 -0.1629285
0.49570218 -0.13756862 -0.16245314
0.49593428 -0.13884045 -0.1625862
0.496282 -0.14027376 -0.16286916
0.49639612 -0.1414027 -0.1628453
0.49616092 -0.14206563 -0.16236457
0.4965021 -0.1435111 -0.16263527
0.49672738 -0.14480743 -0.16275342
0.4964902 -0.14547591 -0.16226867
0.49671152 -0.14677778 -0.16237968
0.49693227 -0.14808628 -0.16248871
0.49669334 -0.14875968 -0.1620004
0.49691147 -0.1500755 -0.16210397
0.4972403 -0.15155533 -0.16234955
0.49745452 -0.15288146 -0.16244538
0.49721277 -0.15356289 -0.16195124
0.49742326 -0.1548948 -0.16204023
0.49763203 -0.15623164 -0.16212569
0.4973885 -0.15691799 -0.161628
0.4974843 -0.15810081 -0.16156632
0.49768788 -0.15944785 -0.16164196
0.49744284 -0.16013852 -0.16114113
0.4976459 -0.16149609 -0.16121413
0.49795678 -0.16302247 -0.16142362
0.49815512 -0.164389 -0.16148774
0.49790722 -0.16508767 -0.16098112
0.49821386 -0.16663036 -0.16118121
0.49829787 -0.16784184 -0.16109627
0.49804825 -0.16854541 -0.16058607
0.49834868 -0.17010053 -0.16077445
0.4984288 -0.17132214 -0.16068162
0.49817744 -0.17203064 -0.16016786
0.49836326 -0.17342736 -0.16020729
0.49843973 -0.1746586 -0.16010712
0.4985148 -0.17589341 -0.1600042
0.49826124 -0.17660807 -0.15948595
0.49854958 -0.17819487 -0.15965001
0.49851248 -0.17926468 -0.15940315
0.4982574 -0.17998366 -0.15888178
0.49843448 -0.18140972 -0.15890248
0.498502 -0.18266334 -0.15878457
0.49824536 -0.18338661 -0.15826008
0.49852517 -0.18500213 -0.15840583
0.4985891 -0.1862664 -0.15828048
0.49886575 -0.18789433 -0.15841918
0.4986063 -0.18862562 -0.15788889
0.49877322 -0.19008178 -0.15788859
0.49904484 -0.19172491 -0.15801689
0.4987834 -0.19246173 -0.15748258
0.4988413 -0.1937503 -0.15734358
0.49900278 -0.19522494 -0.15733162
0.49926826 -0.19688918 -0.15744658
0.49900422 -0.19763339 -0.1569069
0.49915966 -0.19911848 -0.15688379
0.49972978 -0.20134781 -0.15736914
0.49946314 -0.20209938 -0.15682413
0.49992877 -0.20416524 -0.15717706
0.49986967 -0.20529847 -0.15688495
0.49960104 -0.2060556 -0.15633592
0.4988112 -0.20586206 -0.1551504
0.49802545 -0.20566589 -0.15397175
0.49734548 -0.20565449 -0.15292367
0.4970799 -0.206403 -0.15238088
0.49609438 -0.20580994 -0.15096402
0.49541983 -0.20578513 -0.14992669
0.49515668 -0.20652686 -0.14938882
0.4942805 -0.20610793 -0.14810999
0.49340698 -0.2056817 -0.14683653
0.49314642 -0.20641604 -0.14630403
0.49227685 -0.2059787 -0.14503862
0.49151066 -0.2057289 -0.14389965
0.49064666 -0.20527849 -0.14264515
0.49038982 -0.20600235 -0.14212023
0.48963037 -0.20573863 -0.14099415
0.48897192 -0.20566395 -0.13999054
0.48871708 -0.20638227 -0.13946964
0.48796234 -0.20610276 -0.13835365
0.4872098 -0.20581706 -0.13724211
0.4869571 -0.20652923 -0.13672568
0.48620784 -0.20623434 -0.13562085
0.4854608 -0.20593324 -0.13452046
0.48471588 -0.20562598 -0.13342455
0.48446646 -0.20632894 -0.1329148
0.48372543 -0.2060137 -0.13182627
0.4830836 -0.20589434 -0.13085628
0.4828362 -0.20659174 -0.13035055
0.48210043 -0.20626181 -0.12927276
0.4813656 -0.20592311 -0.12819801
0.48112035 -0.20661438 -0.12769674
0.48038942 -0.20626776 -0.1266294
0.47966135 -0.20591633 -0.12556727
0.47903085 -0.20576485 -0.12462044
0.47878864 -0.20644748 -0.12412543
0.4779696 -0.20587136 -0.12296261
0.47724783 -0.20549561 -0.12191459
0.47700801 -0.20617148 -0.12142449
0.47629094 -0.20578954 -0.12038477
0.47557536 -0.20539998 -0.11934873
0.47533777 -0.20606968 -0.11886309
0.47462547 -0.20567092 -0.11783377
0.4740093 -0.20547852 -0.11691629
0.47320658 -0.20485292 -0.11578751
0.47297224 -0.2055134 -0.11530857
0.47226834 -0.20509472 -0.11429568
0.4714719 -0.2044512 -0.113179795
0.47123998 -0.20510492 -0.112705745
0.47063354 -0.20488456 -0.11180826
0.47002888 -0.20465933 -0.1109144
0.46979868 -0.20530811 -0.11044394
0.4691967 -0.20507556 -0.109555475
0.46850464 -0.20461935 -0.10856758
0.46781477 -0.204157 -0.10758415
0.46758762 -0.20479715 -0.10711994
0.46699294 -0.2045479 -0.10624572
0.466491 -0.20451513 -0.105476394
0.4662654 -0.20515098 -0.10501531
0.4656749 -0.20489003 -0.10414957
0.4650867 -0.20462571 -0.103288084
0.46486285 -0.20525663 -0.10283057
0.46436697 -0.20520863 -0.10207323
0.4638275 -0.20504439 -0.10126921
0.46324477 -0.20476295 -0.100419186
0.46302322 -0.2053874 -0.09996636
0.46248764 -0.20521206 -0.09917037
0.46195397 -0.20503321 -0.09837786
0.46173394 -0.20565337 -0.09792815
0.4612022 -0.2054673 -0.097139984
0.46067235 -0.20527773 -0.096355304
0.46045384 -0.20589358 -0.09590872
0.45992628 -0.20569763 -0.09512872
0.45944402 -0.20561291 -0.09439897
0.45883217 -0.20517722 -0.09353134
0.45861608 -0.2057863 -0.093089655
0.45813674 -0.2056896 -0.092366524
0.45761618 -0.20547454 -0.09160069
0.45740148 -0.20607963 -0.09116191
0.45692623 -0.20597535 -0.09044649
0.45636693 -0.20563371 -0.08964328
0.45615378 -0.20623451 -0.08920761
0.45563945 -0.20600264 -0.08845442
0.45512667 -0.20576665 -0.08770439
0.45465842 -0.20564628 -0.08700254
0.45444745 -0.2062409 -0.086571336
0.4538963 -0.20587572 -0.085784934
0.45338854 -0.20562369 -0.08504546
0.45317918 -0.20621371 -0.0846176
0.4526748 -0.20595828 -0.0838839
0.45221373 -0.20581901 -0.083196566
0.45171252 -0.20555599 -0.08246912
0.45150536 -0.2061399 -0.08204569
0.45096472 -0.20574863 -0.08128017
0.45038363 -0.20522825 -0.08047498
0.4501783 -0.20580697 -0.080055326
0.44972506 -0.2056494 -0.07938333
0.44923258 -0.20536706 -0.07867279
0.44902867 -0.20594178 -0.07825602
0.44849694 -0.20552783 -0.07750821
0.4480067 -0.20522958 -0.07680402
0.44752023 -0.20493376 -0.07610514
0.4473187 -0.20550177 -0.07569326
0.44683483 -0.20520078 -0.07499942
0.44639343 -0.20502195 -0.074349366
0.4461933 -0.20558599 -0.073940344
0.4458339 -0.20565213 -0.073373586
0.445358 -0.20534715 -0.07269271
0.44515905 -0.20590788 -0.072286084
0.4446862 -0.20559922 -0.0716106
0.44421768 -0.20529534 -0.07094093
0.44371846 -0.20488401 -0.07024283
0.44352183 -0.20543824 -0.06984092
0.44321945 -0.20564996 -0.06933647
0.4428144 -0.20552364 -0.06873334
0.44261864 -0.20607544 -0.0683332
0.44248384 -0.20682777 -0.06799163
0.44216782 -0.20698291 -0.06747613
0.4419722 -0.20753425 -0.067076325
0.44156408 -0.2073754 -0.066474214
0.44102895 -0.20678255 -0.065752886
0.44068664 -0.20682897 -0.06521603
0.44049302 -0.20737477 -0.06482024
0.44011667 -0.20729733 -0.0642528
0.43912902 -0.20511699 -0.06311397
0.43893814 -0.205655 -0.06272383
0.43893242 -0.20683451 -0.062505946
0.9170105 -0.30735606 -0.78866506
0.9080521 -0.30475974 -0.77520627
0.907213 -0.30712476 -0.77349126
0.8977123 -0.30405703 -0.75927234
0.88987863 -0.3019501 -0.7474747
0.88906413 -0.30424574 -0.74581
0.8813777 -0.30211917 -0.73424447
0.8747368 -0.30059597 -0.7241973
0.86705214 -0.2983256 -0.71265966
0.86626863 -0.300534 -0.71105826
0.85942686 -0.29871064 -0.7007515
0.85179996 -0.2962933 -0.68932897
0.8510369 -0.29844388 -0.6877695
0.84457344 -0.29670584 -0.6780354
0.8381214 -0.29491186 -0.6683287
0.8373766 -0.2970112 -0.66680634
0.8317877 -0.29572457 -0.6583517
0.8259359 -0.29419798 -0.64953065
0.8209013 -0.29319385 -0.64188737
0.8201793 -0.29522866 -0.64041185
0.81517905 -0.29417583 -0.6328305
0.8109648 -0.2936459 -0.6263788
0.81025547 -0.29564533 -0.6249289
0.80634063 -0.29527625 -0.61891395
0.8024214 -0.2948669 -0.6128992
0.79904693 -0.2948291 -0.6076657
0.7983523 -0.29678693 -0.60624593
0.79448104 -0.29632378 -0.60031503
0.79141486 -0.2964418 -0.59553313
0.7907293 -0.29837406 -0.59413195
0.78667414 -0.29767895 -0.5879559
0.78165525 -0.29618698 -0.5804221
0.7809823 -0.2980836 -0.5790468
0.7747064 -0.29551187 -0.5697492
0.769499 -0.29373178 -0.56197286
0.7592462 -0.2878133 -0.5470826
0.7586059 -0.28961807 -0.5457739
0.7439924 -0.2799442 -0.5247663
0.6533133 -0.20715533 -0.3966339
0.6528457 -0.2084732 -0.39567822
0.5357157 -0.11183258 -0.2306262
0.53057116 -0.10848244 -0.22322108
0.53030616 -0.10922946 -0.22267938
0.5260932 -0.106588915 -0.21659718
0.5242588 -0.10595534 -0.21385902
0.5215289 -0.10452276 -0.2098694
0.52127725 -0.10523196 -0.20935512
0.5198517 -0.10490474 -0.20719835
0.5181756 -0.10434016 -0.20469403
0.51792836 -0.105037 -0.20418872
0.51664937 -0.10480351 -0.20224325
0.5155014 -0.10467598 -0.20048279
0.5152574 -0.10536357 -0.19998418
0.51411426 -0.105223276 -0.19823344
0.51297575 -0.10507585 -0.1964912
0.51171106 -0.104799114 -0.19457546
0.5114719 -0.10547315 -0.19408669
0.5100851 -0.10506109 -0.19200487
0.50870377 -0.104639426 -0.18993329
0.5084685 -0.10530237 -0.18945256
0.50683975 -0.10461941 -0.18704224
0.5053409 -0.10404455 -0.18481483
0.5051102 -0.10469457 -0.18434347
0.50349337 -0.10397848 -0.18195744
0.5018813 -0.10324888 -0.17958127
0.5002741 -0.10250579 -0.17721498
0.5000507 -0.10313549 -0.17675835
0.4985125 -0.102434576 -0.1744918
0.49685386 -0.10159338 -0.17206268
0.49663526 -0.10220954 -0.17161587
0.49517077 -0.10153972 -0.16945839
0.49370956 -0.10085644 -0.16730833
0.49349532 -0.10146027 -0.16687046
0.4922251 -0.10095266 -0.16498646
0.4910211 -0.10050071 -0.1631955
0.49019027 -0.10043308 -0.16191716
0.48998076 -0.101023644 -0.16148892
0.48909226 -0.10088085 -0.16013403
0.48882082 -0.10139941 -0.15962222
0.48861262 -0.10198625 -0.15919667
0.48828048 -0.10243668 -0.15860248
0.48837724 -0.10336052 -0.15859179
0.48816872 -0.103948265 -0.15816557
0.4880809 -0.104671456 -0.15790321
0.4882409 -0.105676204 -0.15797667
0.48845553 -0.10674823 -0.1581232
0.48824537 -0.10734062 -0.15769362
0.48870042 -0.1086984 -0.15816377
0.4892131 -0.110132426 -0.15871008
0.4890004 -0.1107319 -0.15827537
0.48956695 -0.11224475 -0.15889154
0.490134 -0.11376954 -0.15950647
0.48991847 -0.114377014 -0.15906596
0.49047995 -0.11591229 -0.15967043
0.4910961 -0.117524646 -0.16034633
0.49176973 -0.119218804 -0.16109727
0.4915496 -0.11983919 -0.16064739
0.4921583 -0.121473685 -0.16130784
0.49264845 -0.12297465 -0.16180752
0.4924255 -0.123603046 -0.16135183
0.4927938 -0.12496818 -0.16168596
0.4932742 -0.12648274 -0.1621681
0.49304885 -0.12711792 -0.16170752
0.49341357 -0.12850174 -0.16203281
0.4937727 -0.12988739 -0.16234906
0.494131 -0.131281 -0.16266271
0.49390236 -0.13192542 -0.16219541
0.49414095 -0.133177 -0.1623479
0.49437943 -0.13443562 -0.16249894
0.49414906 -0.13508499 -0.16202804
0.4944975 -0.13650005 -0.16232267
0.49484384 -0.13792132 -0.16261287
0.49461126 -0.13857684 -0.16213752
0.4948407 -0.1398544 -0.16227128
0.49518183 -0.1412905 -0.1625508
0.49540606 -0.1425765 -0.16267496
0.49517062 -0.14324003 -0.1621938
0.49539363 -0.14453533 -0.16231443
0.49561477 -0.14583546 -0.16243136
0.4953776 -0.14650394 -0.16194662
0.49559605 -0.14781135 -0.16205807
0.49592355 -0.14927997 -0.16231075
0.4961382 -0.1505978 -0.16241454
0.49589816 -0.15127428 -0.16192399
0.4961102 -0.15259944 -0.16202237
0.49632037 -0.15392943 -0.16211703
0.49607858 -0.15461086 -0.1616229
0.49628496 -0.15594651 -0.16171068
0.4964896 -0.15728715 -0.16179492
0.4962461 -0.15797351 -0.16129722
0.49644813 -0.15932153 -0.16137612
0.49664843 -0.16067453 -0.16145146
0.49684808 -0.1620341 -0.16152467
0.49660197 -0.16272782 -0.1610216
0.49679795 -0.16409321 -0.1610881
0.49710247 -0.16563196 -0.1612929
0.49685436 -0.16633123 -0.16078581
0.4970467 -0.167711 -0.16084413
0.49723616 -0.16909395 -0.16089745
0.49698633 -0.16979817 -0.16038679
0.49717203 -0.17118675 -0.1604333
0.497357 -0.17258176 -0.16047752
0.4974323 -0.17381017 -0.16038036
0.49718004 -0.17452115 -0.15986481
0.49736083 -0.17592783 -0.15990052
0.49753922 -0.1773384 -0.15993182
0.49728522 -0.1780543 -0.1594127
0.49724716 -0.17912291 -0.15916745
0.49742255 -0.180546 -0.15919186
0.49716726 -0.18126558 -0.15867005
0.49733937 -0.18269499 -0.15868832
0.49751112 -0.18413167 -0.15870477
0.49767983 -0.1855711 -0.15871602
0.49742192 -0.18629806 -0.15818886
0.4975888 -0.18774621 -0.15819576
0.49775407 -0.1891994 -0.15819918
0.4974944 -0.18993129 -0.15766844
0.49765712 -0.19139218 -0.15766673
0.49792364 -0.19304098 -0.1577933
0.497662 -0.19377841 -0.15725854
0.49782172 -0.19525494 -0.15724936
0.49808365 -0.19691975 -0.15736608
0.49823776 -0.19840342 -0.1573469
0.49797326 -0.1991489 -0.15680633
0.49823013 -0.2008288 -0.15691252
0.49889645 -0.20325688 -0.15752432
0.4986289 -0.20401096 -0.1569775
0.49867034 -0.20532785 -0.15681238
0.49788496 -0.20513654 -0.15562615
0.49761784 -0.20588937 -0.15508023
0.49693787 -0.20587783 -0.15402634
0.49616036 -0.2056765 -0.15285401
0.49538293 -0.20546515 -0.15168358
0.4951189 -0.20620933 -0.15114394
0.49434572 -0.20599054 -0.14998141
0.4935743 -0.20576476 -0.1488228
0.49331245 -0.2065028 -0.14828762
0.4924443 -0.2060756 -0.14701393
0.49157768 -0.20563896 -0.1457443
0.49131846 -0.20636961 -0.14521447
0.49045637 -0.20592298 -0.14395355
0.48969713 -0.20566575 -0.14281936
0.48894012 -0.2054024 -0.14168969
0.4886844 -0.2061232 -0.14116699
0.48793063 -0.20585063 -0.14004399
0.48727793 -0.20577012 -0.13904445
0.48702416 -0.20648539 -0.13852577
0.48617724 -0.20599864 -0.13729544
0.48543113 -0.20570454 -0.13618807
0.48517978 -0.20641305 -0.13567431
0.484437 -0.20610975 -0.13457365
0.4836963 -0.20580024 -0.13347745
0.48305574 -0.20568824 -0.13250223
0.48280743 -0.2063881 -0.13199471
0.482072 -0.20606384 -0.13090923
0.48143598 -0.20593888 -0.12994334
0.48118967 -0.20663321 -0.12943985
0.48045892 -0.20629288 -0.12836435
0.47973153 -0.20594902 -0.12729476
0.47948736 -0.2066372 -0.12679572
0.4787633 -0.20628414 -0.12573285
0.47813606 -0.20613137 -0.12478544
0.47731984 -0.20555553 -0.12361829
0.47707897 -0.20623448 -0.123125955
0.47636193 -0.20585859 -0.12207798
0.4756471 -0.20547651 -0.12103448
0.47540838 -0.20614931 -0.12054661
0.47469753 -0.20575964 -0.11951062
0.4739882 -0.20536232 -0.11847834
0.4732803 -0.20495719 -0.11744967
0.4730449 -0.20562075 -0.11696848
0.47234097 -0.20520794 -0.11594731
0.47154653 -0.20457487 -0.11482392
0.4713135 -0.20523167 -0.114347644
0.47061443 -0.20480092 -0.11333713
0.4700104 -0.20458177 -0.11243728
0.46977934 -0.20523301 -0.11196502
0.4691779 -0.20500642 -0.11107056
0.46857825 -0.20477504 -0.11017971
0.46788913 -0.20432027 -0.10918884
0.4676609 -0.20496349 -0.1087224
0.46706662 -0.20472094 -0.107841775
0.46638274 -0.20425136 -0.106861606
0.46615648 -0.20488904 -0.106399186
0.46556678 -0.20463355 -0.10552792
0.4649788 -0.20437317 -0.10466026
0.4647543 -0.20500593 -0.10420141
0.46425915 -0.20496324 -0.10343993
0.46372 -0.20480321 -0.10263058
0.46318272 -0.20463966 -0.10182473
0.4629604 -0.20526628 -0.10137033
0.46242538 -0.20509624 -0.10056913
0.46184793 -0.20480937 -0.099722445
0.46162724 -0.20543137 -0.099271394
0.4610965 -0.20525107 -0.09847859
0.46056694 -0.2050657 -0.09768858
0.46034777 -0.2056834 -0.09724065
0.4598205 -0.20549156 -0.09645532
0.45929512 -0.20529628 -0.095673464
0.45881474 -0.20521212 -0.094942145
0.45859775 -0.20582364 -0.094498694
0.4580329 -0.20550208 -0.09367753
0.4575122 -0.20529 -0.0929059
0.45729685 -0.20589691 -0.092465796
0.45677918 -0.20568034 -0.09169964
0.45626345 -0.20546064 -0.09093706
0.45604965 -0.20606326 -0.09050007
0.45553628 -0.20583732 -0.08974226
0.45502374 -0.20560502 -0.088986754
0.45455536 -0.20548774 -0.08827992
0.45434374 -0.20608424 -0.087847374
0.4538363 -0.20584542 -0.087100945
0.45332903 -0.2055986 -0.086356245
0.45311892 -0.2061908 -0.085926816
0.45257282 -0.20581953 -0.085143454
0.45211163 -0.20568302 -0.08445103
0.45190305 -0.20627092 -0.08402471
0.45140365 -0.20601206 -0.08329434
0.45090476 -0.20574589 -0.082566015
0.45032614 -0.20523645 -0.08175626
0.45012006 -0.2058173 -0.08133505
0.449625 -0.20553917 -0.080614716
0.44913232 -0.20525938 -0.079898395
0.44892776 -0.20583594 -0.0794803
0.4484382 -0.20555222 -0.07876949
0.44794917 -0.20526132 -0.078060806
0.44774613 -0.20583358 -0.07764582
0.44721892 -0.20541215 -0.07690054
0.44677618 -0.20524068 -0.076242864
0.44625515 -0.20481922 -0.07550723
0.4460545 -0.2053848 -0.07509709
0.44565374 -0.20532435 -0.07448533
0.4452569 -0.20526953 -0.07387858
0.44505727 -0.20583208 -0.073470645
0.44458467 -0.20552695 -0.07278987
0.44415256 -0.20534232 -0.07215106
0.44395435 -0.20590098 -0.07174595
0.443489 -0.20559733 -0.07107617
0.4429934 -0.20518675 -0.07037812
0.44269508 -0.20540942 -0.06987607
0.4424987 -0.2059629 -0.06947472
0.44205868 -0.20571351 -0.068834856
0.44192404 -0.20646735 -0.068494506
0.44172817 -0.20701937 -0.0680942
0.44141033 -0.2071631 -0.06757555
0.44100952 -0.20702358 -0.06697744
0.44081458 -0.20757301 -0.066579014
0.440322 -0.20711073 -0.0658946
0.43992198 -0.20695427 -0.065300666
0.43961972 -0.20712635 -0.06480138
0.43942654 -0.20767087 -0.064406514
0.4384384 -0.205457 -0.06325772
0.43837437 -0.2064378 -0.06298746
0.4381831 -0.20697694 -0.06259651
0.9151644 -0.30651578 -0.7916411
0.91431195 -0.30891854 -0.78989875
0.9047918 -0.3059266 -0.7755453
0.8952965 -0.30285624 -0.76124406
0.89447135 -0.3051821 -0.7595575
0.8867042 -0.30307406 -0.7477901
0.87924075 -0.30108556 -0.73647636
0.87288225 -0.29974195 -0.72677773
0.87208736 -0.30198237 -0.725153
0.8644323 -0.29969004 -0.7135921
0.85706025 -0.29751024 -0.7024538
0.85628676 -0.29969028 -0.70087296
0.8487192 -0.29726788 -0.68947095
0.8422529 -0.2955216 -0.67967284
0.84149945 -0.29764527 -0.6781329
0.8350809 -0.29583588 -0.66842014
0.8295114 -0.29455668 -0.65994227
0.8236797 -0.2930377 -0.65109617
0.82295126 -0.2950907 -0.6496074
0.81794363 -0.29407555 -0.6419619
0.8127119 -0.29284942 -0.6340025
0.8119978 -0.29486233 -0.63254285
0.8080729 -0.29451784 -0.6264732
0.80392313 -0.29396984 -0.62008727
0.8032198 -0.29595223 -0.6186497
0.7993194 -0.29553163 -0.61263126
0.796211 -0.29567364 -0.6077533
0.79263514 -0.29543054 -0.60221124
0.79194564 -0.29737383 -0.60080206
0.7886268 -0.29727906 -0.5956359
0.78434986 -0.2964049 -0.5891072
0.78367066 -0.29831934 -0.58771896
0.7786347 -0.29677927 -0.580119
0.7724745 -0.29428902 -0.5709262
0.7718116 -0.29615757 -0.56957126
0.7675858 -0.29513705 -0.5631474
0.75670713 -0.28863853 -0.54727274
0.7253578 -0.26516917 -0.50233805
0.7247689 -0.266829 -0.5011344
0.560362 -0.13167527 -0.26754758
0.5306953 -0.10787086 -0.22529776
0.5304293 -0.1086206 -0.2247541
0.5272413 -0.106876194 -0.22007464
0.5243473 -0.10534845 -0.21581717
0.52409065 -0.10607186 -0.21529259
0.5225277 -0.105655946 -0.21292321
0.5202007 -0.10455264 -0.20947854
0.5187886 -0.104232706 -0.20732827
0.5185396 -0.10493448 -0.20681939
0.51700616 -0.104483776 -0.2045021
0.5158596 -0.104366384 -0.20273186
0.51561433 -0.105057694 -0.20223056
0.5144741 -0.10492892 -0.2004721
0.5133354 -0.10479018 -0.19871786
0.5130932 -0.10547286 -0.1982228
0.5120848 -0.10543871 -0.196654
0.5108266 -0.10515939 -0.19473717
0.50944656 -0.10475134 -0.19265214
0.5092094 -0.10541984 -0.19216737
0.50783396 -0.10499389 -0.19009253
0.506213 -0.104315385 -0.18767756
0.5059802 -0.104971565 -0.18720174
0.5044895 -0.104393534 -0.18497302
0.50287914 -0.103680655 -0.1825805
0.5026509 -0.1043239 -0.18211403
0.50117135 -0.10371442 -0.17990807
0.49951124 -0.102906205 -0.17745408
0.49804142 -0.102271885 -0.1752676
0.49782008 -0.102895744 -0.17481522
0.4962947 -0.102179036 -0.17255601
0.4948358 -0.10151342 -0.17039183
0.49461892 -0.102124654 -0.1699486
0.4931047 -0.101375714 -0.16771233
0.49190003 -0.10093571 -0.16590662
0.49070048 -0.100487486 -0.16411026
0.49048942 -0.10108237 -0.16367888
0.48947862 -0.10081678 -0.162146
0.48865604 -0.10074386 -0.16087401
0.4884475 -0.10133165 -0.16044778
0.48805484 -0.1017175 -0.15976861
0.48766142 -0.1020999 -0.15908886
0.48745352 -0.102685824 -0.15866399
0.4875468 -0.10360844 -0.15865171
0.4872798 -0.10412998 -0.15814553
0.48755708 -0.10526694 -0.15838389
0.48734787 -0.10585657 -0.15795633
0.48755944 -0.10692862 -0.15810318
0.4879524 -0.10821607 -0.15849648
0.48774135 -0.10881093 -0.15806511
0.4883082 -0.11031461 -0.15869288
0.48875389 -0.11168719 -0.15915392
0.48854023 -0.112289436 -0.1587172
0.48904282 -0.1137442 -0.159253
0.48959994 -0.115274794 -0.15986097
0.49015418 -0.11681331 -0.16046304
0.48993635 -0.11742726 -0.16001783
0.4905444 -0.119048655 -0.16068983
0.49097535 -0.12046499 -0.16112033
0.4907548 -0.12108663 -0.16066954
0.49129874 -0.122658074 -0.16125001
0.49160612 -0.12394529 -0.1615096
0.49138317 -0.1245737 -0.1610539
0.49186113 -0.12608887 -0.16154096
0.49222225 -0.12746602 -0.16186914
0.49246454 -0.12870002 -0.1620363
0.4922383 -0.12933768 -0.16157389
0.49270672 -0.13087551 -0.16204214
0.49305996 -0.13227394 -0.16235436
0.49283132 -0.13291839 -0.16188703
0.49306595 -0.13417394 -0.1620385
0.49341393 -0.13558723 -0.16234003
0.4931833 -0.13623723 -0.16186868
0.49352646 -0.13765763 -0.16216135
0.49386743 -0.13908423 -0.1624496
0.49409348 -0.14036381 -0.16258357
0.4938598 -0.14102244 -0.16210598
0.494194 -0.1424617 -0.16238146
0.49441534 -0.14375415 -0.16250594
0.4941797 -0.14441831 -0.16202432
0.49428663 -0.14556168 -0.16199556
0.49450228 -0.14686365 -0.16210946
0.4942651 -0.14753215 -0.1616247
0.4945907 -0.14900176 -0.1618816
0.49480307 -0.1503186 -0.16198789
0.49512583 -0.15180176 -0.16223799
0.4948856 -0.15247889 -0.16174698
0.4952024 -0.15396746 -0.16198689
0.49529666 -0.1551393 -0.16193351
0.49505466 -0.15582134 -0.16143893
0.4952579 -0.15716323 -0.16152667
0.49545702 -0.15850641 -0.16160764
0.4952133 -0.15919338 -0.16110949
0.49541217 -0.16054761 -0.1611883
0.49560812 -0.16190496 -0.16126199
0.49580353 -0.16326907 -0.16133364
0.49555716 -0.16396344 -0.16083013
0.49585712 -0.16550012 -0.16103543
0.4960467 -0.16687526 -0.1610961
0.49579838 -0.16757514 -0.16058858
0.49598524 -0.16895752 -0.16064377
0.49606267 -0.17017497 -0.16055629
0.4958128 -0.17087916 -0.16004564
0.4959953 -0.17227288 -0.16009207
0.49606898 -0.17349976 -0.1599971
0.4961412 -0.1747302 -0.15989935
0.49588916 -0.17544056 -0.15938424
0.49606612 -0.17685041 -0.15941916
0.4960272 -0.17791417 -0.15917638
0.49577385 -0.17862822 -0.15865858
0.49605298 -0.18022515 -0.15882112
0.49622425 -0.18165202 -0.15884435
0.49596894 -0.18237162 -0.15832254
0.4961377 -0.18380605 -0.15834053
0.49630404 -0.18524426 -0.15835412
0.49647015 -0.18669005 -0.15836608
0.49621224 -0.18741702 -0.15783893
0.4964795 -0.18904896 -0.15797694
0.49653655 -0.19032665 -0.15784734
0.49627686 -0.19105856 -0.1573166
0.49643585 -0.19252378 -0.15731406
0.49669757 -0.194178 -0.15743963
0.4969575 -0.19583912 -0.15756124
0.4966948 -0.19657965 -0.15702425
0.49674493 -0.19788034 -0.15687995
0.49699694 -0.19955042 -0.15698761
0.49673244 -0.20029587 -0.15644704
0.49739712 -0.20273198 -0.15706798
0.4976411 -0.2044167 -0.15716055
0.49737355 -0.20517078 -0.15661374
0.49669322 -0.2051616 -0.15555303
0.49611798 -0.20533942 -0.15462431
0.4953436 -0.20513892 -0.15344948
0.49507868 -0.20588559 -0.15290803
0.49430612 -0.20567307 -0.15173805
0.49363717 -0.20564714 -0.15069798
0.49337423 -0.20638826 -0.15016055
0.4926068 -0.20616071 -0.14900114
0.49174166 -0.2057342 -0.14772321
0.49148113 -0.20646855 -0.14719069
0.4905203 -0.20583665 -0.14579858
0.48986065 -0.20578088 -0.14477809
0.48900503 -0.20533022 -0.14351916
0.4887482 -0.20605409 -0.14299424
0.48799467 -0.20578803 -0.14186314
0.48724386 -0.20551692 -0.14073719
0.48698923 -0.20623463 -0.14021674
0.4862417 -0.20595425 -0.13909747
0.4854969 -0.20566888 -0.13798334
0.48524442 -0.20638044 -0.13746734
0.48450238 -0.20608471 -0.13635924
0.48376197 -0.2057817 -0.13525493
0.48302427 -0.20547363 -0.13415578
0.48277506 -0.20617598 -0.13364647
0.48204124 -0.20585991 -0.1325547
0.48140526 -0.20573983 -0.1315822
0.48115805 -0.20643663 -0.1310769
0.4804288 -0.20610456 -0.12999512
0.47970247 -0.20576762 -0.12891854
0.47945744 -0.20645827 -0.12841772
0.4787343 -0.20611216 -0.12734784
0.4781077 -0.20596547 -0.1263945
0.47748286 -0.20581388 -0.12544471
0.47724065 -0.20649652 -0.1249497
0.47642988 -0.20592007 -0.12378239
0.4756218 -0.20533629 -0.12262044
0.4753822 -0.20601153 -0.12213078
0.47476518 -0.20583774 -0.12119707
0.4740566 -0.20544797 -0.12015732
0.473819 -0.20611769 -0.11967168
0.47311372 -0.20571874 -0.11863866
0.47241056 -0.20531365 -0.1176101
0.47161728 -0.2046891 -0.11647828
0.47138315 -0.20534898 -0.11599976
0.47077766 -0.2051424 -0.11508965
0.47008136 -0.20471378 -0.11407574
0.46984923 -0.2053681 -0.113601245
0.46924895 -0.2051501 -0.112701274
0.46855786 -0.20470658 -0.11169805
0.46832767 -0.20535538 -0.11122758
0.46773124 -0.20512256 -0.11033608
0.46704543 -0.20466438 -0.10934365
0.46645346 -0.20442298 -0.108460635
0.46622613 -0.20506375 -0.10799598
0.46554628 -0.20459254 -0.10701509
0.46504855 -0.2045596 -0.106243506
0.46482295 -0.20519543 -0.10578243
0.46423802 -0.2049343 -0.10491373
0.4636548 -0.20466827 -0.10404857
0.46343094 -0.2052992 -0.10359106
0.46289527 -0.20513959 -0.102781914
0.46236047 -0.2049741 -0.10197516
0.46178377 -0.204693 -0.10112276
0.4615623 -0.20531715 -0.10067016
0.46103176 -0.20514137 -0.0998718
0.46050307 -0.20496206 -0.099076904
0.46028316 -0.2055819 -0.098627426
0.4597129 -0.20528099 -0.097788505
0.4591878 -0.20508982 -0.097001314
0.45896953 -0.20570506 -0.09655517
0.45844707 -0.20550832 -0.09577303
0.45796955 -0.20542376 -0.09504186
0.45740676 -0.20510207 -0.094218165
0.45719078 -0.20571084 -0.09377671
0.4566734 -0.20549826 -0.09300518
0.45620045 -0.20539907 -0.09228372
0.4559859 -0.20600384 -0.09184516
0.45547298 -0.20578295 -0.09108207
0.454919 -0.20543934 -0.09027587
0.45470607 -0.20603952 -0.08984065
0.45419684 -0.20580687 -0.089085296
0.45373103 -0.20568837 -0.08837826
0.45322484 -0.2054477 -0.08762901
0.4530141 -0.20604172 -0.08719826
0.45251065 -0.20579603 -0.08645422
0.45196703 -0.20542566 -0.08566873
0.4517579 -0.20601508 -0.0852413
0.4512581 -0.2057575 -0.084504955
0.45084193 -0.20573609 -0.08385877
0.45030475 -0.2053521 -0.08308569
0.4500978 -0.2059354 -0.08266271
0.44956344 -0.20554486 -0.08189522
0.4490299 -0.20514646 -0.081130244
0.44882467 -0.20572485 -0.08071081
0.44837576 -0.205567 -0.080036856
0.4478875 -0.20528202 -0.079323225
0.44768372 -0.20585643 -0.07890668
0.44711787 -0.20532005 -0.07811497
0.44659334 -0.2048995 -0.077367894
0.44615182 -0.20472597 -0.07670813
0.4459505 -0.20529334 -0.07629669
0.4455111 -0.20511493 -0.075641096
0.445074 -0.20493606 -0.074989185
0.444874 -0.2054998 -0.07458039
0.44451767 -0.2055664 -0.07401267
0.4440486 -0.20526716 -0.073331416
0.44384977 -0.2058276 -0.07292501
