ply
format ascii 1.0
element vertex 1414
property float x
property float y
property float z
end_header
-1.9612674 -0.102198236 -2.8315854
-1.9614336 -0.10206831 -2.831034
-1.9615364 -0.10249127 -2.8307016
-1.9617422 -0.10199943 -2.8300145
-1.9619193 -0.10175181 -2.8294265
-1.962131 -0.10117923 -2.828718
-1.9622324 -0.10159604 -2.8283904
-1.9624263 -0.10116454 -2.827743
-1.9626471 -0.10047105 -2.8270028
-1.9627472 -0.10088324 -2.826679
-1.962904 -0.100765474 -2.8261597
-1.9630953 -0.100312114 -2.8255205
-1.9631947 -0.10072103 -2.8251991
-1.9634176 -0.099944346 -2.8244507
-1.963719 -0.0983893 -2.8234296
-1.9638326 -0.0986359 -2.8230593
-1.9639299 -0.0990371 -2.8227441
-1.9643147 -0.09659604 -2.8214345
-1.9647216 -0.093888365 -2.8200471
-1.9648155 -0.09427583 -2.8197427
-1.9649822 -0.09392947 -2.8191872
-1.6662858 -0.20879482 -3.818711
-1.6750267 -0.20404801 -3.7894795
-1.6837379 -0.199164 -3.7603433
-1.6843382 -0.20163462 -3.7584019
-1.6909525 -0.19846873 -3.7362921
-1.6979072 -0.19485709 -3.7130382
-1.6984825 -0.1972245 -3.711178
-1.7045777 -0.19424798 -3.690802
-1.7105086 -0.19131768 -3.6709745
-1.7110617 -0.19359377 -3.669186
-1.7168343 -0.19065347 -3.6498852
-1.7224524 -0.18775976 -3.6311007
-1.7273479 -0.18549645 -3.6147387
-1.7278708 -0.1876487 -3.6130476
-1.7328687 -0.18513991 -3.5963392
-1.7373605 -0.1830677 -3.5813255
-1.737866 -0.18514799 -3.5796907
-1.7425212 -0.18277258 -3.564127
-1.7464824 -0.18105984 -3.55089
-1.7469721 -0.18307492 -3.5493066
-1.7506396 -0.18157436 -3.5370533
-1.753715 -0.18066537 -3.526786
-1.7562404 -0.18032016 -3.518365
-1.7567136 -0.18226783 -3.5168345
-1.7592936 -0.1817919 -3.5082283
-1.761005 -0.18227786 -3.502538
-1.7614713 -0.18419644 -3.5010304
-1.7655705 -0.18181387 -3.4873185
-1.8291768 -0.10822453 -3.2736776
-1.8295009 -0.1095585 -3.2726295
-1.8382177 -0.10067083 -3.2433803
-1.8414173 -0.098374 -3.2326665
-1.8429035 -0.09813683 -3.22771
-1.843201 -0.09936102 -3.226748
-1.8449496 -0.09875125 -3.2209084
-1.8463482 -0.09855413 -3.2162447
-1.8466401 -0.09975562 -3.2153006
-1.8480351 -0.0995244 -3.2106478
-1.8495634 -0.09909245 -3.2055461
-1.8498503 -0.10027303 -3.2046185
-1.851164 -0.100083284 -3.2002373
-1.8524083 -0.09996278 -3.1960897
-1.8539218 -0.09945346 -3.1910353
-1.8542017 -0.10060505 -3.1901305
-1.8554348 -0.10043872 -3.1860182
-1.8567982 -0.10006783 -3.1814675
-1.8570734 -0.10120093 -3.1805773
-1.8582959 -0.10099015 -3.1765
-1.8596473 -0.100571536 -3.1719882
-1.8599181 -0.10168614 -3.1711123
-1.8609304 -0.1017213 -3.1677413
-1.8620017 -0.10165121 -3.1641707
-1.8626703 -0.10215731 -3.161955
-1.8629369 -0.10325402 -3.1610932
-1.8641974 -0.102853514 -3.1568847
-1.8655777 -0.10224582 -3.1522717
-1.8658394 -0.10332295 -3.1514254
-1.8662328 -0.104196936 -3.150136
-1.8676581 -0.10345995 -3.1453693
-1.8739692 -0.09502165 -3.1241448
-1.8742142 -0.09602994 -3.1233525
-1.907766 -0.043873537 -3.0103428
-1.9099164 -0.041379046 -3.00312
-1.9100807 -0.042054992 -3.0025887
-1.9107044 -0.041979313 -3.0005088
-1.9115188 -0.04157729 -2.9977868
-1.9116805 -0.042242702 -2.997264
-1.912297 -0.042145666 -2.9952075
-1.9129102 -0.042042423 -2.9931626
-1.9135205 -0.04193176 -2.9911268
-1.913679 -0.042584162 -2.9906142
-1.9142199 -0.042575087 -2.988812
-1.9146984 -0.042664252 -2.9872203
-1.9148552 -0.043309867 -2.986713
-1.9152683 -0.043501887 -2.9853415
-1.9158671 -0.04335498 -2.9833434
-1.9160223 -0.04399381 -2.9828415
-1.9167478 -0.043598495 -2.9804149
-1.9175028 -0.043133352 -2.9778888
-1.9183794 -0.042427022 -2.9749515
-1.9185302 -0.043047268 -2.9744642
-1.9194628 -0.04220537 -2.9713376
-1.9204545 -0.04122941 -2.9680104
-1.9206012 -0.041833606 -2.9675357
-1.9214629 -0.041070305 -2.9646478
-1.9223202 -0.040293872 -2.961773
-1.9224635 -0.04088387 -2.9613092
-1.923316 -0.040086024 -2.9584506
-1.9242564 -0.039093636 -2.9552946
-1.9251006 -0.03826843 -2.9524627
-1.9252386 -0.038836222 -2.9520164
-1.92623 -0.0376825 -2.9486861
-1.9271594 -0.036628958 -2.945565
-1.9272933 -0.037180077 -2.945132
-1.9283342 -0.035860486 -2.9416335
-1.929159 -0.034962054 -2.9388642
-1.929289 -0.035496864 -2.9384441
-1.9300224 -0.03475899 -2.9359832
-1.9308717 -0.033756047 -2.9331298
-1.9312696 -0.03369645 -2.9318025
-1.9313956 -0.034214847 -2.931395
-1.9320592 -0.03356596 -2.9291694
-1.9325098 -0.033365767 -2.9276636
-1.9326335 -0.033875216 -2.9272633
-1.9333782 -0.033006616 -2.924762
-1.933884 -0.032652177 -2.923069
-1.9340053 -0.033151127 -2.9226768
-1.934448 -0.032920595 -2.921196
-1.9347152 -0.03308115 -2.92031
-1.9349227 -0.033373944 -2.9196255
-1.9350425 -0.03386703 -2.919238
-1.9352779 -0.034090232 -2.9184592
-1.9354544 -0.03444839 -2.9178803
-1.9355737 -0.034939643 -2.917494
-1.9358071 -0.03515901 -2.9167218
-1.9359554 -0.03557855 -2.9162374
-1.9360745 -0.03606826 -2.9158525
-1.9361628 -0.036632407 -2.9155712
-1.9362245 -0.037263703 -2.9153814
-1.9363153 -0.037824497 -2.9150922
-1.9364345 -0.038315475 -2.9147062
-1.9365263 -0.038875584 -2.9144142
-1.9366745 -0.039294243 -2.9139304
-1.9367937 -0.039785214 -2.9135447
-1.9367728 -0.04063481 -2.9136343
-1.936893 -0.04112587 -2.9132454
-1.9370127 -0.04161837 -2.9128585
-1.9369932 -0.04247422 -2.9129436
-1.937086 -0.04304002 -2.912648
-1.9370954 -0.04382757 -2.912635
-1.9372158 -0.044323154 -2.9122458
-1.9372258 -0.045115434 -2.9122317
-1.9372102 -0.045981202 -2.9123044
-1.9373312 -0.046479557 -2.9119127
-1.9372336 -0.04757761 -2.912264
-1.9371383 -0.048677243 -2.9126074
-1.9372606 -0.049180537 -2.912212
-1.9371929 -0.050215147 -2.9124615
-1.9371536 -0.051178142 -2.9126163
-1.9370883 -0.052219994 -2.912858
-1.9372121 -0.052729458 -2.9124577
-1.9371223 -0.05385295 -2.9127831
-1.9371136 -0.05475085 -2.9128342
-1.9372383 -0.055264313 -2.9124308
-1.937151 -0.05640041 -2.9127488
-1.9370911 -0.057463318 -2.912973
-1.937217 -0.05798141 -2.9125657
-1.9371588 -0.059051044 -2.912785
-1.9370502 -0.060280293 -2.9131763
-1.9369682 -0.061438065 -2.913477
-1.9370959 -0.06196354 -2.913064
-1.9369651 -0.06328459 -2.9135313
-1.9367311 -0.064935565 -2.9143496
-1.9368606 -0.065468416 -2.9139307
-1.9366802 -0.06697471 -2.914568
-1.9363947 -0.068825714 -2.9155626
-1.9360886 -0.07076045 -2.9166284
-1.9362215 -0.071307264 -2.9161987
-1.9360209 -0.07292955 -2.9169056
-1.935696 -0.07497015 -2.918036
-1.9358312 -0.07552657 -2.917599
-1.9356393 -0.07715952 -2.9182773
-1.9355222 -0.07855859 -2.9187
-1.9356592 -0.079122104 -2.9182572
-1.935498 -0.08068643 -2.9188313
-1.9352612 -0.0825193 -2.9196632
-1.9350536 -0.08427057 -2.9203968
-1.9351935 -0.08484667 -2.919944
-1.9350613 -0.08636136 -2.9204204
-1.9349082 -0.08796176 -2.9209692
-1.9350498 -0.088544935 -2.920511
-1.9349226 -0.090073735 -2.9209707
-1.9348432 -0.091445595 -2.9212673
-1.9349865 -0.09203496 -2.9208043
-1.9349598 -0.09323463 -2.9209223
-1.9349823 -0.094263725 -2.9208713
-1.9349341 -0.095555425 -2.921062
-1.9350789 -0.09615095 -2.9205942
-1.9351249 -0.09711009 -2.9204636
-1.9351263 -0.0982392 -2.9204855
-1.9352717 -0.09883785 -2.920015
-1.9353936 -0.09952602 -2.9196262
-1.9355855 -0.09994905 -2.9189966
-1.9357309 -0.100547396 -2.9185264
-1.9359947 -0.10069186 -2.917651
-1.9361382 -0.101294786 -2.9171875
-1.9364945 -0.10107098 -2.9159951
-1.9366388 -0.101665 -2.9155283
-1.9368534 -0.101982564 -2.9148211
-1.9371595 -0.10193376 -2.9138
-1.9373031 -0.1025247 -2.9133358
-1.937585 -0.10256077 -2.9123976
-1.9378662 -0.10259176 -2.9114614
-1.9380089 -0.10317898 -2.911
-1.9382429 -0.10339209 -2.9102254
-1.9385219 -0.10341547 -2.909297
-1.9387767 -0.10353046 -2.9084504
-1.9389184 -0.10411306 -2.9079926
-1.9391949 -0.10412815 -2.9070714
-1.9394484 -0.10423372 -2.9062295
-1.9395891 -0.10481293 -2.9057746
-1.9398854 -0.10472496 -2.9047854
-1.9401588 -0.1047271 -2.9038746
-1.9402986 -0.105302304 -2.9034226
-1.9405267 -0.105491005 -2.902667
-1.9407978 -0.10548524 -2.9017637
-1.9410244 -0.10566913 -2.9010134
-1.9411631 -0.10624 -2.9005647
-1.941454 -0.106127955 -2.899593
-1.9417006 -0.10620679 -2.8987737
-1.9418384 -0.10677396 -2.898328
-1.9420835 -0.10684895 -2.8975127
-1.9423496 -0.10682198 -2.8966262
-1.9424866 -0.10738575 -2.896183
-1.9427512 -0.107353285 -2.8953009
-1.9430362 -0.10721651 -2.894348
-1.943278 -0.10727567 -2.893544
-1.9434136 -0.107833914 -2.8931053
-1.9436753 -0.10778771 -2.8922327
-1.9439771 -0.10753858 -2.891221
-1.9441118 -0.10809251 -2.8907857
-1.9443917 -0.107935116 -2.8898492
-1.9446912 -0.10767268 -2.8888462
-1.9448245 -0.10822198 -2.8884144
-1.9451631 -0.10774728 -2.8872752
-1.9455003 -0.1072657 -2.8861406
-1.9458967 -0.10647032 -2.884801
-1.9460279 -0.10700946 -2.8843772
-1.9464217 -0.10619936 -2.883045
-1.9469348 -0.10475778 -2.8813024
-1.9470633 -0.10528705 -2.8808866
-1.9475926 -0.1037203 -2.879086
-1.9482394 -0.101505205 -2.8768783
-1.9483646 -0.10202026 -2.8764737
-1.949026 -0.09967245 -2.8742146
-1.949564 -0.09795074 -2.8723822
-1.9501382 -0.09600175 -2.870423
-1.9502579 -0.09649487 -2.8700356
-1.9506702 -0.09538415 -2.868636
-1.9510999 -0.094155215 -2.8671749
-1.9512174 -0.09463876 -2.8667948
-1.9515091 -0.094148375 -2.8658123
-1.9518363 -0.09344278 -2.8647048
-1.9521248 -0.092942335 -2.863732
-1.9522402 -0.09341692 -2.8633592
-1.9524695 -0.093235284 -2.8625908
-1.9527167 -0.092942126 -2.8617601
-1.9528311 -0.0934127 -2.8613904
-1.9530578 -0.09322469 -2.8606312
-1.9532648 -0.093143374 -2.8599396
-1.9533783 -0.093610555 -2.8595724
-1.9535843 -0.09352289 -2.8588839
-1.9537529 -0.09365467 -2.8583255
-1.9539394 -0.093672946 -2.8577046
-1.954052 -0.0941364 -2.8573406
-1.9542009 -0.09437532 -2.8568494
-1.9543859 -0.094390094 -2.8562343
-1.9544979 -0.09485171 -2.8558717
-1.9546102 -0.09531324 -2.8555088
-1.9547585 -0.09554591 -2.8550203
-1.9548706 -0.09600691 -2.854658
-1.9549824 -0.096467756 -2.8542955
-1.9551121 -0.09681645 -2.8538728
-1.9552063 -0.09739172 -2.853572
-1.9553183 -0.09785273 -2.8532097
-1.95543 -0.09831592 -2.8528485
-1.9555591 -0.0986638 -2.852427
-1.955671 -0.09912451 -2.852065
-1.9557652 -0.09970409 -2.8517644
-1.9558595 -0.100284435 -2.8514638
-1.9559718 -0.100745775 -2.8511012
-1.9560499 -0.10144162 -2.8508577
-1.9561955 -0.10167215 -2.850378
-1.9562733 -0.102372654 -2.8501356
-1.9563856 -0.102834634 -2.8497727
-1.9565313 -0.103060395 -2.8492928
-1.9566432 -0.10352186 -2.8489301
-1.9567553 -0.10398322 -2.8485677
-1.9569496 -0.103851356 -2.8479178
-1.957144 -0.10370946 -2.847267
-1.9572554 -0.10416772 -2.8469067
-1.9574473 -0.104030795 -2.846264
-1.9576718 -0.10364315 -2.845507
-1.9578475 -0.10360794 -2.8449204
-1.9579576 -0.104061276 -2.8445642
-1.95818 -0.10366416 -2.8438148
-1.9584007 -0.10326288 -2.8430693
-1.9585099 -0.103711896 -2.8427165
-1.9586985 -0.103543565 -2.8420844
-1.9589167 -0.10313509 -2.8413482
-1.9590249 -0.10358039 -2.8409982
-1.9591954 -0.103529945 -2.8404286
-1.9593961 -0.103232615 -2.8397532
-1.9595658 -0.103173256 -2.8391864
-1.9596728 -0.103614226 -2.83884
-1.9599013 -0.10306245 -2.8380654
-1.9600533 -0.10312671 -2.837561
-1.9601597 -0.10356429 -2.837217
-1.9603419 -0.10336678 -2.836605
-1.960537 -0.10305226 -2.835948
-1.9606423 -0.103486426 -2.8356068
-1.9608656 -0.102915205 -2.83485
-1.9610437 -0.1027147 -2.8342516
-1.9612933 -0.101884775 -2.8334002
-1.9613973 -0.1023119 -2.8330646
-1.9615442 -0.10236008 -2.8325768
-1.9617366 -0.10199712 -2.8319273
-1.9618396 -0.10242142 -2.831594
-1.962004 -0.1022908 -2.8310423
-1.9622073 -0.101799995 -2.8303533
-1.9623096 -0.10222077 -2.8300228
-1.9624844 -0.10197231 -2.8294346
-1.962693 -0.10139848 -2.828726
-1.9628848 -0.10096793 -2.8280773
-1.9629854 -0.10138274 -2.8277514
-1.9632028 -0.10068786 -2.8270109
-1.9633582 -0.1005707 -2.8264906
-1.9634581 -0.100981645 -2.8261676
-1.9636468 -0.10052722 -2.8255286
-1.9638666 -0.099751845 -2.824778
-1.963965 -0.10015799 -2.8244588
-1.9642605 -0.09860053 -2.8234377
-1.9643734 -0.09884695 -2.8230672
-1.964751 -0.09640901 -2.821752
-1.9648468 -0.09680362 -2.8214421
-1.9652439 -0.09409218 -2.8200548
-1.9654087 -0.09374663 -2.819498
-1.9655024 -0.09413239 -2.8191948
-1.6699053 -0.20689362 -3.818301
-1.6705368 -0.20949239 -3.816259
-1.6793147 -0.20458513 -3.7865937
-1.6875054 -0.20005779 -3.7589145
-1.6941068 -0.19687107 -3.7366204
-1.694694 -0.1992876 -3.7347214
-1.7013549 -0.19585676 -3.7122192
-1.707386 -0.192912 -3.6918495
-1.7079495 -0.1952311 -3.6900272
-1.7140248 -0.19207068 -3.669503
-1.7195288 -0.1893677 -3.6509137
-1.7250262 -0.18656631 -3.632343
-1.7255578 -0.18875417 -3.6306238
-1.7303964 -0.18647707 -3.614285
-1.7350943 -0.18425472 -3.5984209
-1.7356082 -0.18636988 -3.5967588
-1.7400457 -0.18429047 -3.5817745
-1.744554 -0.18204936 -3.5665472
-1.7450514 -0.1840961 -3.564939
-1.7488683 -0.18248497 -3.552055
-1.752485 -0.18102379 -3.5398498
-1.7555063 -0.18016285 -3.5296657
-1.7559847 -0.18213153 -3.5281186
-1.7585402 -0.18171917 -3.5195131
-1.7609799 -0.18139479 -3.5113013
-1.7614496 -0.18332809 -3.509782
-1.7636379 -0.1832335 -3.5024216
-1.7755727 -0.17148858 -3.4619284
-1.7760142 -0.1733056 -3.4605007
-1.8364424 -0.102288865 -3.2551177
-1.8399593 -0.09964665 -3.243211
-1.8422593 -0.098435864 -3.2354395
-1.8425604 -0.09967516 -3.2344656
-1.8442843 -0.099121176 -3.2286525
-1.8460819 -0.098440275 -3.2225878
-1.8463765 -0.09965344 -3.2216346
-1.8478317 -0.09936342 -3.216734
-1.8492832 -0.09905025 -3.2118437
-1.8495729 -0.10024254 -3.2109067
-1.8510189 -0.0998954 -3.2060347
-1.8523259 -0.099707 -3.201634
-1.8536273 -0.099501744 -3.1972525
-1.8539101 -0.10066506 -3.1963384
-1.8553412 -0.10024351 -3.191513
-1.8565652 -0.1000823 -3.1873925
-1.8568434 -0.101226486 -3.1864934
-1.8581935 -0.10085153 -3.1819413
-1.8594053 -0.10064842 -3.1778617
-1.8596789 -0.10177411 -3.1769772
-1.8609525 -0.10144564 -3.1726847
-1.8619556 -0.10148878 -3.1693132
-1.8628863 -0.10162063 -3.1661882
-1.8631544 -0.10272412 -3.165321
-1.863951 -0.10303237 -3.1626523
-1.865141 -0.102730274 -3.1586418
-1.8654059 -0.10382019 -3.1577854
-1.8665857 -0.10349821 -3.1538086
-1.8671724 -0.10407569 -3.1518545
-1.8674344 -0.10515394 -3.1510072
-1.8706179 -0.1016097 -3.1401927
-1.9030315 -0.051358324 -3.029646
-1.9092855 -0.042335324 -3.0083377
-1.9094526 -0.04302282 -3.0077975
-1.9109504 -0.041534428 -3.002715
-1.9116299 -0.0413593 -3.000425
-1.9117926 -0.042029154 -2.9998991
-1.9126064 -0.041608375 -2.9971502
-1.9131566 -0.041614797 -2.9953003
-1.913317 -0.042274613 -2.9947817
-1.9139241 -0.042167753 -2.9927373
-1.91459 -0.041946523 -2.9904914
-1.9150035 -0.042151652 -2.9891074
-1.915161 -0.042799726 -2.988598
-1.91576 -0.042665586 -2.9865804
-1.9161699 -0.042856604 -2.9852083
-1.9163257 -0.043497875 -2.9847043
-1.9169184 -0.043346785 -2.982707
-1.9176356 -0.042955324 -2.9802835
-1.917789 -0.04358674 -2.9797873
-1.9185346 -0.043118395 -2.9772658
-1.9193089 -0.04257923 -2.9746454
-1.9202328 -0.041740093 -2.9715137
-1.9203814 -0.04235171 -2.971033
-1.9213002 -0.041488286 -2.967917
-1.9221531 -0.04072918 -2.9650257
-1.9222981 -0.04132598 -2.9645567
-1.9231153 -0.04060546 -2.9617865
-1.9239596 -0.039811157 -2.9589226
-1.9241012 -0.040394075 -2.9584646
-1.925062 -0.039335344 -2.955202
-1.9258965 -0.038506232 -2.9523704
-1.9267575 -0.03760213 -2.9494474
-1.9268936 -0.03816222 -2.9490073
-1.9277803 -0.03717156 -2.9459949
-1.928781 -0.03592054 -2.9425914
-1.928913 -0.036464002 -2.9421644
-1.9296733 -0.035680365 -2.9395838
-1.9304858 -0.034766138 -2.9368238
-1.9306146 -0.035296008 -2.9364076
-1.9313658 -0.034481384 -2.9338565
-1.9318783 -0.034165997 -2.932123
-1.9327117 -0.033135194 -2.9292886
-1.9328362 -0.03364713 -2.9288864
-1.9332256 -0.03356955 -2.9275744
-1.933847 -0.03296388 -2.9254668
-1.9339694 -0.033467762 -2.9250708
-1.9344988 -0.033046357 -2.9232776
-1.9349667 -0.03275261 -2.9216955
-1.9352604 -0.032848734 -2.9207106
-1.9353805 -0.033342753 -2.9203224
-1.9355869 -0.033634968 -2.9196382
-1.9357924 -0.033926222 -2.918956
-1.935912 -0.034418393 -2.9185693
-1.9361447 -0.034640018 -2.917794
-1.9363785 -0.034855336 -2.9170146
-1.9364974 -0.035345048 -2.9166298
-1.9366435 -0.03576853 -2.9161518
-1.936761 -0.036261313 -2.915772
-1.9367948 -0.036961675 -2.9156802
-1.936914 -0.037452035 -2.915295
-1.9369779 -0.03808145 -2.9150999
-1.9370406 -0.03871529 -2.9149084
-1.9371601 -0.03920689 -2.9145222
-1.9372803 -0.03969674 -2.9141333
-1.937289 -0.040474568 -2.9141285
-1.9374087 -0.040967386 -2.9137414
-1.9374744 -0.041601606 -2.9135401
-1.9375119 -0.042312603 -2.9134362
-1.9375777 -0.042951338 -2.913235
-1.937698 -0.04344631 -2.9128458
-1.9377093 -0.044235118 -2.9128327
-1.9376669 -0.045173913 -2.9130049
-1.9377879 -0.045671955 -2.9126134
-1.9378008 -0.04646753 -2.912595
-1.9376794 -0.04763895 -2.9130392
-1.9378014 -0.048141006 -2.9126446
-1.937683 -0.049318384 -2.9130797
-1.937645 -0.050277926 -2.9132376
-1.937555 -0.05139176 -2.9135752
-1.9376787 -0.051900912 -2.913175
-1.9376434 -0.052869007 -2.9133236
-1.9375042 -0.054146204 -2.9138322
-1.937629 -0.05466028 -2.913428
-1.9375972 -0.05563611 -2.9135652
-1.9374856 -0.05685542 -2.9139786
-1.9376116 -0.05737414 -2.913571
-1.9375294 -0.05851918 -2.9138827
-1.9374233 -0.05974533 -2.914278
-1.937266 -0.061137788 -2.9148507
-1.9373941 -0.061665118 -2.9144366
-1.937266 -0.062984675 -2.9149084
-1.9370615 -0.06455245 -2.9156444
-1.9371914 -0.06508686 -2.9152246
-1.9370409 -0.066505656 -2.9157746
-1.9368144 -0.06817789 -2.9165883
-1.9369462 -0.06872001 -2.9161623
-1.9367197 -0.07041586 -2.9169772
-1.9364976 -0.07211237 -2.9177763
-1.936302 -0.073738724 -2.9184852
-1.9364368 -0.0742936 -2.918049
-1.9361444 -0.076261416 -2.9190934
-1.9359587 -0.07789266 -2.919768
-1.9360958 -0.07845679 -2.9193249
-1.9358872 -0.08018779 -2.9200802
-1.9356797 -0.0819307 -2.9208326
-1.9358189 -0.082503445 -2.9203825
-1.9356405 -0.08416993 -2.9210346
-1.9354875 -0.0857625 -2.9215982
-1.9353356 -0.08736504 -2.9221585
-1.9354776 -0.08794918 -2.9216995
-1.9353542 -0.08947172 -2.9221618
-1.9352802 -0.09083155 -2.9224534
-1.9354236 -0.09142181 -2.9219894
-1.9353733 -0.092711054 -2.9221988
-1.9353969 -0.09374161 -2.9221518
-1.9355413 -0.09433591 -2.921685
-1.9354945 -0.09563413 -2.9218826
-1.9354972 -0.09675847 -2.9219086
-1.9355243 -0.097798355 -2.92185
-1.9356703 -0.09839855 -2.9213784
-1.9357691 -0.09917665 -2.92107
-1.9359618 -0.09959944 -2.9204354
-1.9361076 -0.10019964 -2.9199638
-1.936322 -0.10053549 -2.9192536
-1.936422 -0.101312146 -2.9189417
-1.9365678 -0.101912044 -2.9184704
-1.9369205 -0.101696946 -2.917277
-1.9372268 -0.10165606 -2.9162467
-1.9375317 -0.10161098 -2.9152198
-1.9376758 -0.10220379 -2.914754
-1.9379339 -0.10233549 -2.9138904
-1.938214 -0.10237214 -2.91295
-1.9383571 -0.10296153 -2.9124868
-1.938658 -0.10290065 -2.911473
-1.9389131 -0.10302116 -2.910619
-1.9391898 -0.10304578 -2.90969
-1.9393317 -0.103629604 -2.9092312
-1.9395624 -0.10383692 -2.9084616
-1.939837 -0.10385289 -2.9075391
-1.9399781 -0.10443363 -2.9070828
-1.9402512 -0.10444404 -2.9061646
-1.9405233 -0.104451455 -2.9052503
-1.9406636 -0.105028495 -2.9047968
-1.9409344 -0.105029665 -2.9038858
-1.9411613 -0.105218954 -2.9031293
-1.9414519 -0.10511823 -2.9021494
-1.9415909 -0.10569004 -2.9017
-1.9417944 -0.10596865 -2.9010236
-1.9420613 -0.105955146 -2.9001257
-1.9421996 -0.10652418 -2.8996787
-1.9424443 -0.1066025 -2.898859
-1.942688 -0.10667854 -2.898042
-1.9428253 -0.107244484 -2.8975973
-1.9430678 -0.10731589 -2.8967843
-1.9433309 -0.10728408 -2.8958993
-1.9436133 -0.107150614 -2.8949454
-1.9437497 -0.107710995 -2.894505
-1.9439893 -0.10777 -2.8937008
-1.9442695 -0.10762565 -2.892754
-1.9444047 -0.10818233 -2.8923168
-1.9447037 -0.107930474 -2.8913033
-1.9449812 -0.10777549 -2.8903658
-1.9451154 -0.10832755 -2.889932
-1.9454114 -0.10806437 -2.8889287
-1.945726 -0.1076954 -2.887859
-1.9460802 -0.10711353 -2.8866506
-1.946212 -0.10765699 -2.8862236
-1.9465839 -0.106960125 -2.884952
-1.9470528 -0.10574121 -2.8833377
-1.9471825 -0.10627574 -2.8829176
-1.9477075 -0.10472385 -2.8811038
-1.9482497 -0.103053935 -2.8792298
-1.9483765 -0.103575796 -2.8788197
-1.9489933 -0.101457864 -2.8766801
-1.9496647 -0.099007845 -2.8743463
-1.9501944 -0.09729016 -2.8725114
-1.9503157 -0.09778912 -2.8721192
-1.9508615 -0.09593812 -2.8702264
-1.951268 -0.09483062 -2.868825
-1.9513865 -0.09531815 -2.8684418
-1.9517527 -0.09440633 -2.8671825
-1.9520591 -0.0938146 -2.8661335
-1.9521757 -0.09429503 -2.8657558
-1.9524621 -0.093799025 -2.8647788
-1.9527647 -0.093191996 -2.8637416
-1.9529921 -0.093011245 -2.8629715
-1.953107 -0.09348398 -2.8626
-1.9533511 -0.0931913 -2.8617704
-1.9535756 -0.09300421 -2.8610098
-1.9536893 -0.093472935 -2.8606415
-1.9538947 -0.09338918 -2.8599489
-1.9540812 -0.093411304 -2.8593223
-1.9541944 -0.09387724 -2.8589563
-1.9543618 -0.09400875 -2.8583975
-1.954564 -0.09391865 -2.8577147
-1.9547127 -0.09415605 -2.8572223
-1.954825 -0.09461891 -2.8568585
-1.9549906 -0.09474557 -2.8563063
-1.9551028 -0.09520742 -2.8559434
-1.9552151 -0.09566937 -2.8555806
-1.9553797 -0.09579053 -2.8550305
-1.9555092 -0.09613973 -2.8546069
-1.955621 -0.09660044 -2.8542447
-1.9557503 -0.096944466 -2.8538203
-1.9558622 -0.09740694 -2.8534594
-1.9559908 -0.09775448 -2.8530378
-1.9561026 -0.098214574 -2.8526764
-1.956231 -0.098561235 -2.8522549
-1.9563097 -0.09924841 -2.8520124
-1.9564215 -0.09970881 -2.8516507
-1.9565661 -0.09994095 -2.8511713
-1.9566277 -0.10075168 -2.8509896
-1.9567398 -0.101212405 -2.8506274
-1.9569005 -0.101326175 -2.8500905
-1.9569792 -0.102022186 -2.8498476
-1.957124 -0.102246545 -2.8493683
-1.9572356 -0.102706365 -2.849007
-1.9573952 -0.102816 -2.848474
-1.9575392 -0.10303349 -2.8479958
-1.9576508 -0.10349177 -2.8476357
-1.9578425 -0.10334808 -2.846986
-1.958017 -0.10332735 -2.8463993
-1.9581276 -0.10378285 -2.8460414
-1.958348 -0.10339911 -2.8452885
-1.9585216 -0.10336518 -2.8447042
-1.9587257 -0.103086345 -2.8440092
-1.9588349 -0.10353658 -2.8436556
-1.9590372 -0.10325519 -2.8429666
-1.9592388 -0.1029703 -2.8422804
-1.9593472 -0.10341684 -2.8419294
-1.9595327 -0.10324382 -2.8413005
-1.9597015 -0.10319636 -2.8407311
-1.9599003 -0.10289662 -2.8400536
-1.9600078 -0.103338525 -2.8397062
-1.9601899 -0.103160284 -2.8390882
-1.960401 -0.102730274 -2.838365
-1.9605076 -0.10316848 -2.8380208
-1.9606587 -0.103228256 -2.8375144
-1.9608529 -0.10291361 -2.8368516
-1.9609587 -0.10334903 -2.8365095
-1.9611369 -0.103154846 -2.835904
-1.9613578 -0.10257896 -2.835143
-1.9615473 -0.10226459 -2.8344963
-1.9616517 -0.10269416 -2.834159
-1.9618977 -0.10185567 -2.8333054
-1.9620433 -0.10190405 -2.8328176
-1.9621468 -0.10232962 -2.832483
-1.9623226 -0.10209208 -2.8318844
-1.9624994 -0.10183517 -2.831282
-1.9626021 -0.102257505 -2.8309503
-1.9627886 -0.10189156 -2.8303108
-1.9629693 -0.10157102 -2.829694
-1.9631808 -0.10094615 -2.828964
-1.9632819 -0.10136236 -2.828637
-1.9634662 -0.100973725 -2.828005
-1.9636723 -0.100360274 -2.8272932
-1.9637722 -0.10077214 -2.8269696
-1.9639287 -0.10062513 -2.826439
-1.9641124 -0.100196086 -2.8258078
-1.9642116 -0.100604676 -2.8254867
-1.9644383 -0.09972157 -2.8246975
-1.9647137 -0.098315194 -2.8237271
-1.9648286 -0.098538876 -2.8233483
-1.9649259 -0.09893981 -2.8230333
-1.965285 -0.09659772 -2.8217533
-1.9656746 -0.09388365 -2.8203583
-1.9657688 -0.094271064 -2.8200538
-1.9659287 -0.09395185 -2.8195064
-1.6641649 -0.21020815 -3.8498003
-1.6648127 -0.212874 -3.8477056
-1.674333 -0.20741537 -3.815187
-1.6829193 -0.2026386 -3.7858648
-1.6907307 -0.19842203 -3.759193
-1.6913291 -0.2008848 -3.7572577
-1.6978006 -0.19772573 -3.7351751
-1.7043549 -0.19436288 -3.7128024
-1.7049289 -0.19672483 -3.7109466
-1.710732 -0.19391587 -3.6911457
-1.7167333 -0.1907974 -3.6706593
-1.717285 -0.19306804 -3.6688752
-1.7226413 -0.19043347 -3.6505964
-1.7280828 -0.18760756 -3.6320214
-1.7328398 -0.18538924 -3.6157925
-1.7333623 -0.18753967 -3.6141028
-1.7379482 -0.18536575 -3.598457
-1.7423214 -0.18333131 -3.583538
-1.7428272 -0.18541285 -3.5819023
-1.7471399 -0.18331711 -3.5671859
-1.7507348 -0.18193248 -3.5549328
-1.751226 -0.18395364 -3.5533447
-1.7546836 -0.1826206 -3.5415597
-1.7575648 -0.18187922 -3.531754
-1.7599962 -0.18160239 -3.5234926
-1.7604717 -0.18355909 -3.521955
-1.762646 -0.18351814 -3.514575
-1.7660271 -0.18200535 -3.5030425
-1.7664927 -0.18392113 -3.501537
-1.8242874 -0.116447784 -3.3027954
-1.841288 -0.09749482 -3.2443693
-1.8415929 -0.09874969 -3.2433832
-1.842637 -0.09908432 -3.2398534
-1.8439316 -0.099086516 -3.2354603
-1.8456377 -0.09854334 -3.2296503
-1.8459357 -0.09976997 -3.2286863
-1.8476468 -0.0991704 -3.2228568
-1.8491579 -0.098797694 -3.217714
-1.8494502 -0.10000047 -3.216769
-1.8507568 -0.09985563 -3.2123294
-1.8521917 -0.099514365 -3.207447
-1.8524791 -0.10069741 -3.2065175
-1.8538413 -0.10041354 -3.2018838
-1.8551306 -0.100203864 -3.197501
-1.8565489 -0.09978981 -3.1926713
-1.8568292 -0.10094325 -3.191765
-1.8580419 -0.10077799 -3.1876435
-1.8593816 -0.100408435 -3.1830833
-1.8596574 -0.10154337 -3.1821916
-1.860793 -0.10142965 -3.1783333
-1.8619888 -0.1012063 -3.1742666
-1.8622606 -0.10232459 -3.1733878
-1.8631263 -0.10255774 -3.170459
-1.8639845 -0.102787144 -3.1675563
-1.8651695 -0.10250572 -3.1635237
-1.8654364 -0.10360425 -3.1626604
-1.8668069 -0.10300133 -3.1579862
-1.8678459 -0.10288528 -3.1544564
-1.8681085 -0.10396599 -3.1536074
-1.8694121 -0.1034004 -3.1491609
-1.8739383 -0.09766979 -3.1335795
-1.9091803 -0.0424447 -3.011845
-1.909349 -0.0431389 -3.0112998
-1.9106774 -0.041937307 -3.0067446
-1.9116973 -0.041213192 -3.0032558
-1.9118612 -0.04188796 -3.0027256
-1.9126042 -0.04159268 -3.0001926
-1.9134649 -0.04108281 -2.9972522
-1.913626 -0.041745167 -2.9967318
-1.9142923 -0.041539714 -2.9944618
-1.9148321 -0.041539628 -2.9926305
-1.9153733 -0.04152659 -2.9907937
-1.9155313 -0.04217652 -2.990283
-1.9160023 -0.042271495 -2.9886885
-1.9165963 -0.04213783 -2.9866674
-1.9167525 -0.042780355 -2.9861627
-1.9172194 -0.042858787 -2.9845812
-1.9176862 -0.042928346 -2.9829996
-1.9178408 -0.043564662 -2.9824996
-1.9185511 -0.04316853 -2.980074
-1.9193492 -0.042591482 -2.977343
-1.9200848 -0.04211334 -2.9748278
-1.920235 -0.042731747 -2.9743419
-1.9210588 -0.04205932 -2.9715211
-1.9219977 -0.041144505 -2.9683
-1.9221443 -0.0417481 -2.9678257
-1.9229882 -0.04098369 -2.964932
-1.9237978 -0.04026605 -2.9621568
-1.9239411 -0.04085574 -2.9616933
-1.9248953 -0.039817676 -2.958415
-1.9257854 -0.038884595 -2.9553587
-1.9264051 -0.038479287 -2.9532397
-1.9265434 -0.039047997 -2.952793
-1.9273936 -0.03814338 -2.9498723
-1.9282696 -0.037162516 -2.946861
-1.9284042 -0.03771616 -2.9464262
-1.9292772 -0.0367072 -2.9434247
-1.9300877 -0.03580808 -2.9406395
-1.9302186 -0.036346905 -2.940216
-1.9310534 -0.035362512 -2.9373448
-1.9315369 -0.03512148 -2.935695
-1.9323066 -0.034240022 -2.9330485
-1.9324332 -0.034760907 -2.9326394
-1.9331418 -0.033984624 -2.9302046
-1.9337889 -0.033327274 -2.927983
-1.9339126 -0.03383641 -2.927583
-1.9344398 -0.033426497 -2.9257786
-1.9349923 -0.03294447 -2.9238846
-1.9351139 -0.033444658 -2.9234915
-1.9355205 -0.033280984 -2.9221056
-1.9358126 -0.033376172 -2.9211175
-1.936103 -0.033469684 -2.920136
-1.9362229 -0.033963107 -2.9197483
-1.9364276 -0.03425307 -2.9190645
-1.9366592 -0.034475435 -2.9182875
-1.9367787 -0.034966696 -2.9179015
-1.9369826 -0.03525042 -2.9172199
-1.937212 -0.03546913 -2.9164505
-1.9373308 -0.035958238 -2.9160662
-1.9374217 -0.036517154 -2.9157794
-1.9374838 -0.037149888 -2.9155931
-1.9375752 -0.037710253 -2.915305
-1.9376943 -0.03820062 -2.9149196
-1.9377853 -0.038763553 -2.9146328
-1.9378511 -0.039392836 -2.914434
-1.9379704 -0.03988412 -2.914048
-1.937954 -0.04073244 -2.9141366
-1.9380467 -0.041297194 -2.9138443
-1.9381665 -0.041790318 -2.913457
-1.9381782 -0.04257402 -2.9134476
-1.9382448 -0.043212917 -2.913246
-1.9382309 -0.044073246 -2.9133265
-1.9383515 -0.044569746 -2.9129364
-1.9382849 -0.045583714 -2.9132023
-1.9382726 -0.046453543 -2.9132776
-1.9383942 -0.046953756 -2.9128845
-1.9382503 -0.048202414 -2.913421
-1.9381344 -0.049382057 -2.9138598
-1.9382573 -0.04988813 -2.9134624
-1.9382225 -0.05084879 -2.913618
-1.9380851 -0.0521131 -2.9141335
-1.938078 -0.05300705 -2.914192
-1.9382026 -0.05351959 -2.9137893
-1.9380667 -0.05480331 -2.9143004
-1.938012 -0.055855148 -2.9145265
-1.9381378 -0.05637291 -2.9141197
-1.937954 -0.057826802 -2.9148004
-1.9378228 -0.059132595 -2.9152958
-1.9379503 -0.05965716 -2.9148836
-1.9378223 -0.06096996 -2.9153688
-1.9376447 -0.06244745 -2.916029
-1.9375197 -0.063773334 -2.9165044
-1.9376496 -0.06430777 -2.9160843
-1.9374503 -0.06588606 -2.9168224
-1.9372537 -0.06746951 -2.9175508
-1.9373856 -0.06801198 -2.9171245
-1.9372146 -0.069533914 -2.9177637
-1.9370465 -0.07106008 -2.9183931
-1.9368058 -0.07283774 -2.9192789
-1.9369406 -0.073392294 -2.918843
-1.9367281 -0.07510125 -2.9196303
-1.9364934 -0.07690082 -2.920497
-1.9366302 -0.07746435 -2.9200542
-1.9364005 -0.07927167 -2.9209037
-1.9362204 -0.08092699 -2.9215796
-1.9363594 -0.08149916 -2.92113
-1.9361607 -0.08324079 -2.9218717
-1.9359637 -0.084992066 -2.922608
-1.9358393 -0.08650473 -2.9230888
-1.9359813 -0.08708885 -2.9226298
-1.935836 -0.08869486 -2.923185
-1.935717 -0.09022033 -2.923648
-1.9358606 -0.090811536 -2.9231837
-1.935768 -0.09226094 -2.9235547
-1.935746 -0.09346318 -2.9236758
-1.9358909 -0.09405963 -2.923207
-1.935894 -0.09518132 -2.9232397
-1.9359437 -0.09613658 -2.9231086
-1.9359484 -0.09726524 -2.923136
-1.9360945 -0.09786668 -2.9226635
-1.9361253 -0.09890769 -2.9226003
-1.936179 -0.09986548 -2.9224544
-1.9363259 -0.10046968 -2.9219797
-1.9365864 -0.10063227 -2.9211018
-1.9368032 -0.10095958 -2.9203784
-1.9369495 -0.1015613 -2.9199057
-1.9371402 -0.10198693 -2.9192753
-1.9375135 -0.101682335 -2.9179971
-1.9378393 -0.101555474 -2.9168866
-1.937984 -0.102151036 -2.9164186
-1.9383314 -0.10192163 -2.9152305
-1.9386325 -0.10187152 -2.9142072
-1.938776 -0.102462135 -2.913743
-1.9390086 -0.10268217 -2.9129615
-1.9393293 -0.10253028 -2.9118676
-1.939472 -0.1031172 -2.9114065
-1.9396809 -0.1034233 -2.9107096
-1.939999 -0.10325989 -2.9096239
-1.9402285 -0.103466794 -2.908853
-1.94037 -0.10404909 -2.9083953
-1.9406416 -0.10406448 -2.9074738
-1.9409127 -0.10407545 -2.9065545
-1.9410534 -0.10465404 -2.9060998
-1.9413016 -0.10475426 -2.9052608
-1.9415704 -0.104756296 -2.9043486
-1.9417104 -0.105331495 -2.9038966
-1.9419563 -0.10542516 -2.9030652
-1.9422019 -0.10551424 -2.902235
-1.9424468 -0.10560101 -2.901408
-1.9425853 -0.10617156 -2.9009597
-1.9428288 -0.106254466 -2.9001367
-1.9430923 -0.10623632 -2.8992417
-1.9432302 -0.10680349 -2.898796
-1.9434512 -0.106976226 -2.8980534
-1.943692 -0.107048415 -2.897239
-1.943829 -0.1076128 -2.8967955
-1.944069 -0.10767955 -2.8959842
-1.9443691 -0.10744549 -2.8949566
-1.9445866 -0.10760538 -2.894224
-1.9447225 -0.10816455 -2.8937845
-1.9449999 -0.10801847 -2.892837
-1.9452963 -0.10776916 -2.8918223
-1.945431 -0.10832371 -2.8913867
-1.9457257 -0.108066365 -2.890377
-1.945979 -0.10800862 -2.889515
-1.9461128 -0.10855886 -2.8890827
-1.9464242 -0.10818672 -2.8880107
-1.946774 -0.10760342 -2.8868017
-1.9471803 -0.10670549 -2.8853874
-1.9473116 -0.10724525 -2.8849633
-1.9478127 -0.10581338 -2.883207
-1.948331 -0.10426318 -2.8813884
-1.9484593 -0.10479091 -2.8809736
-1.9490312 -0.10290452 -2.878959
-1.9496197 -0.100896254 -2.8768847
-1.9497443 -0.10140944 -2.8764815
-1.9504033 -0.09895641 -2.87415
-1.9509064 -0.09733482 -2.8723805
-1.9514251 -0.095595196 -2.8705528
-1.9515445 -0.09608705 -2.870166
-1.9519265 -0.095082104 -2.8688314
-1.9522688 -0.09428284 -2.8676383
-1.9523864 -0.094766684 -2.867258
-1.9526887 -0.094173595 -2.8662088
-1.9529897 -0.09357423 -2.8651645
-1.9532531 -0.09318082 -2.864255
-1.9533688 -0.09365602 -2.8638816
-1.9536294 -0.093261525 -2.8629816
-1.9538531 -0.09307769 -2.8622153
-1.9539676 -0.093548566 -2.8618453
-1.9541723 -0.09346754 -2.8611476
-1.9543931 -0.093278095 -2.8603902
-1.9545069 -0.09374558 -2.8600228
-1.9547092 -0.09365815 -2.8593326
-1.9548756 -0.09379018 -2.8587732
-1.9550418 -0.0939185 -2.8582144
-1.9551545 -0.09438258 -2.8578496
-1.9553366 -0.09440143 -2.8572323
-1.9554842 -0.094637305 -2.8567407
-1.9555964 -0.09509954 -2.8563776
-1.9557257 -0.09545049 -2.8559525
-1.9558725 -0.09568354 -2.855463
-1.9559848 -0.09614484 -2.8551006
-1.9561136 -0.09649408 -2.8546772
-1.956259 -0.09672841 -2.8541923
-1.9563712 -0.09718668 -2.8538291
-1.9564832 -0.09764708 -2.8534675
-1.9566115 -0.097994305 -2.8530457
-1.9567398 -0.098338805 -2.8526232
-1.9568516 -0.09879859 -2.852262
-1.9569631 -0.0992606 -2.8519018
-1.9570746 -0.09972038 -2.8515406
-1.9571865 -0.10018017 -2.8511791
-1.9572812 -0.100762025 -2.8508801
-1.957425 -0.10099005 -2.850401
-1.9575205 -0.10156763 -2.8500993
-1.9576323 -0.10202744 -2.8497381
-1.9577914 -0.10213527 -2.8492022
-1.9579502 -0.10224125 -2.8486674
-1.9580616 -0.102699205 -2.8483074
-1.9582204 -0.102796555 -2.8477721
-1.9584097 -0.102655604 -2.8471239
-1.9585203 -0.103111096 -2.846766
-1.9586933 -0.10308562 -2.846179
-1.958896 -0.10281941 -2.8454807
-1.9590675 -0.1027882 -2.8448977
-1.9591769 -0.10323939 -2.8445432
-1.9593631 -0.103080206 -2.8439052
-1.9595633 -0.102799155 -2.8432152
-1.959672 -0.10324694 -2.8428636
-1.9598564 -0.10308006 -2.8422322
-1.9600395 -0.102910236 -2.8416035
-1.9601477 -0.10335492 -2.841254
-1.9603148 -0.10330653 -2.8406854
-1.9605252 -0.1028849 -2.8399544
-1.9606913 -0.10282769 -2.8393886
-1.9607981 -0.10326774 -2.839043
-1.9610064 -0.10283627 -2.8383198
-1.9611424 -0.103017196 -2.8378649
-1.9612488 -0.103454456 -2.8375213
-1.9614404 -0.10313845 -2.8368583
-1.9616307 -0.102823436 -2.8362005
-1.9617361 -0.10325698 -2.8358598
-1.9619524 -0.10269035 -2.8351038
-1.9621406 -0.102363944 -2.8344526
-1.96237 -0.10164474 -2.8336453
-1.9624738 -0.102071226 -2.8333101
-1.9626186 -0.10211651 -2.8328214
-1.9628186 -0.1016353 -2.8321235
-1.9629214 -0.102058664 -2.8317907
-1.9630806 -0.10194663 -2.8312466
-1.9632672 -0.10156259 -2.8305988
-1.9633693 -0.10198275 -2.8302686
-1.9635369 -0.10176146 -2.8296905
-1.9637549 -0.10103618 -2.8289227
-1.9639373 -0.10064761 -2.8282895
-1.9640379 -0.101061605 -2.8279643
-1.9642471 -0.10037909 -2.827227
-1.9644026 -0.10022683 -2.8266935
-1.9645022 -0.100636914 -2.8263714
-1.9646746 -0.100296244 -2.8257735
-1.9648998 -0.099392444 -2.824974
-1.9649982 -0.0997977 -2.8246555
-1.9652697 -0.09837032 -2.823679
-1.9653777 -0.098659776 -2.823324
-1.9657267 -0.096349254 -2.8220494
-1.9658226 -0.096743695 -2.8217394
-1.9662029 -0.094025634 -2.8203442
-1.9663692 -0.09361295 -2.8197632
-1.9664629 -0.09399835 -2.8194604
-1.6677597 -0.21161047 -3.8498528
-1.6771975 -0.20618734 -3.8172739
-1.6778271 -0.20877832 -3.8152378
-1.6863225 -0.20396614 -3.7859144
-1.6940519 -0.1997175 -3.7592416
-1.700468 -0.19658212 -3.7371187
-1.7010542 -0.19899498 -3.7352228
-1.7075402 -0.19560534 -3.712849
-1.7132937 -0.19281757 -3.693012
-1.7138567 -0.19513482 -3.6911912
-1.7197951 -0.19199182 -3.670704
-1.7251059 -0.18937689 -3.6523917
-1.7305005 -0.18657105 -3.633783
-1.7310319 -0.18875796 -3.6320646
-1.7357397 -0.18652044 -3.615835
-1.7402864 -0.18436326 -3.6001608
-1.7408003 -0.18647839 -3.5984988
-1.7451283 -0.18442625 -3.583579
-1.7494043 -0.1823463 -3.5688357
-1.749902 -0.18439458 -3.5672262
-1.7534604 -0.18299568 -3.5549726
-1.7568892 -0.18167503 -3.5431666
-1.759747 -0.18094364 -3.533344
-1.7602267 -0.1829176 -3.5317929
-1.7626349 -0.1826317 -3.523531
-1.7647923 -0.18259788 -3.516139
-1.7652642 -0.1845395 -3.5146132
-1.7686105 -0.18301311 -3.5030801
-1.8258394 -0.11578236 -3.3039262
-1.8261806 -0.1171863 -3.302823
-1.8429804 -0.098154925 -3.244394
-1.8440168 -0.09849268 -3.2408588
-1.8453016 -0.09849913 -3.2364585
-1.8456028 -0.09973843 -3.2354848
-1.8472916 -0.09918859 -3.229674
-1.8489885 -0.09859508 -3.2238345
-1.8492835 -0.0998089 -3.2228806
-1.8507799 -0.09943038 -3.217738
-1.8520762 -0.09928994 -3.2132907
-1.8523662 -0.10048345 -3.2123528
-1.853787 -0.1001367 -3.2074704
-1.8551382 -0.0998575 -3.2028286
-1.8564172 -0.09965219 -3.1984384
-1.8567001 -0.10081612 -3.1975238
-1.8581043 -0.10039656 -3.1926942
-1.8593074 -0.100235395 -3.1885655
-1.8595855 -0.10138019 -3.187666
-1.8609118 -0.101005435 -3.1831057
-1.8620387 -0.10089555 -3.179241
-1.8623126 -0.10202245 -3.1783555
-1.8634968 -0.10179457 -3.1742885
-1.8643563 -0.102030344 -3.1713552
-1.8652085 -0.1022624 -3.1684477
-1.8654774 -0.10336957 -3.1675777
-1.8666509 -0.10308359 -3.1635454
-1.8680098 -0.10248564 -3.1588626
-1.8682742 -0.103573695 -3.1580076
-1.8693031 -0.10345376 -3.1544776
-1.8705959 -0.10289291 -3.1500235
-1.8708562 -0.103963666 -3.149182
-1.8753271 -0.098211564 -3.1335998
-1.9101163 -0.04280988 -3.0118587
-1.9114325 -0.04161358 -3.0072947
-1.9115984 -0.04229659 -3.006758
-1.9126072 -0.041568138 -3.003269
-1.913344 -0.041275524 -3.0007317
-1.9135066 -0.041944675 -3.0002058
-1.9143583 -0.04143123 -2.9972653
-1.9150192 -0.041228116 -2.9949915
-1.9151789 -0.041885532 -2.994475
-1.9157137 -0.041883487 -2.9926434
-1.9162498 -0.041868467 -2.9908063
-1.9167174 -0.04196491 -2.9892094
-1.9168745 -0.042611755 -2.988701
-1.9174628 -0.042475812 -2.98668
-1.9179262 -0.04255572 -2.985096
-1.9180815 -0.04319515 -2.9845936
-1.9185443 -0.043263063 -2.983012
-1.9192485 -0.042869568 -2.980582
-1.9194018 -0.04350034 -2.9800863
-1.920191 -0.042919874 -2.9773552
-1.9209188 -0.04243864 -2.97484
-1.9217349 -0.041769434 -2.9720137
-1.9218836 -0.042381037 -2.971533
-1.9228115 -0.04146201 -2.968312
-1.9236475 -0.040700972 -2.9654126
-1.9237925 -0.041297466 -2.964944
-1.9245931 -0.04057624 -2.9621682
-1.9255381 -0.039542124 -2.9588833
-1.9256793 -0.0401235 -2.9584265
-1.926559 -0.03918636 -2.95537
-1.927172 -0.038778443 -2.9532511
-1.9280142 -0.03787732 -2.9503245
-1.9281505 -0.038438648 -2.9498835
-1.9290164 -0.037453752 -2.946872
-1.9298807 -0.03644845 -2.943864
-1.9300134 -0.036994375 -2.9434352
-1.9308143 -0.03609152 -2.94065
-1.9316409 -0.035110638 -2.937773
-1.93177 -0.03564205 -2.9373555
-1.9322485 -0.035399057 -2.9357052
-1.9330091 -0.034514025 -2.9330587
-1.9337109 -0.03374067 -2.9306192
-1.933836 -0.03425537 -2.9302146
-1.9344755 -0.033595093 -2.927993
-1.9349978 -0.033187237 -2.9261854
-1.9351205 -0.033692043 -2.9257886
-1.9356669 -0.03320758 -2.9238944
-1.9360702 -0.033045366 -2.9225059
-1.9363601 -0.033141427 -2.9215164
-1.9364805 -0.03363668 -2.9211273
-1.9367684 -0.03372924 -2.9201458
-1.936972 -0.03401965 -2.9194613
-1.9370917 -0.034512125 -2.9190743
-1.9373217 -0.03473385 -2.9182975
-1.9375247 -0.035018016 -2.917615
-1.9376439 -0.03550834 -2.9172297
-1.9378715 -0.035726413 -2.91646
-1.9379628 -0.03628518 -2.9161735
-1.9380255 -0.036917616 -2.9159877
-1.9381446 -0.03740767 -2.9156027
-1.9382364 -0.037968192 -2.9153147
-1.9383277 -0.038530983 -2.915028
-1.938447 -0.039021656 -2.9146426
-1.9385136 -0.039651267 -2.9144437
-1.9384989 -0.040498864 -2.9145336
-1.9386187 -0.040991675 -2.9141464
-1.9387115 -0.041556593 -2.913854
-1.9387246 -0.042339705 -2.9138458
-1.9387919 -0.042978313 -2.9136448
-1.9389122 -0.043473285 -2.913256
-1.9389005 -0.04433442 -2.9133363
-1.9388362 -0.04534736 -2.9136038
-1.9389573 -0.04584602 -2.913212
-1.9389471 -0.046716668 -2.9132876
-1.9388067 -0.04796386 -2.9138265
-1.938929 -0.048467156 -2.913431
-1.9388168 -0.049648266 -2.91387
-1.938784 -0.050608046 -2.9140272
-1.9386499 -0.051870897 -2.914545
-1.9387741 -0.052381895 -2.9141436
-1.9387692 -0.053276666 -2.914202
-1.9386368 -0.054558918 -2.9147158
-1.9387621 -0.05507455 -2.9143107
-1.9387102 -0.056127504 -2.9145367
-1.9385304 -0.057579637 -2.9152203
-1.9386572 -0.05810111 -2.9148107
-1.9385302 -0.05940852 -2.9153059
-1.9384056 -0.060719866 -2.9157941
-1.9382322 -0.062195614 -2.9164572
-1.9383613 -0.06272697 -2.9160395
-1.9382404 -0.06405446 -2.9165149
-1.9380455 -0.06563084 -2.917256
-1.9381763 -0.0661693 -2.916833
-1.9379852 -0.067754865 -2.9175615
-1.9378184 -0.06927504 -2.9182036
-1.9379512 -0.069821246 -2.9177744
-1.9377881 -0.071349345 -2.9184039
-1.9375536 -0.07312945 -2.9192898
-1.9373459 -0.07483636 -2.9200804
-1.9374818 -0.07539526 -2.9196413
-1.9372532 -0.07719726 -2.9205081
-1.9370286 -0.07900239 -2.9213612
-1.9371667 -0.07957053 -2.920915
-1.9369919 -0.08122798 -2.9215908
-1.936798 -0.08296757 -2.9223359
-1.936938 -0.08354403 -2.9218829
-1.9367468 -0.08529756 -2.9226193
-1.9366271 -0.086812 -2.9231
-1.9364859 -0.088416256 -2.9236588
-1.9366287 -0.0890041 -2.9231968
-1.9365144 -0.09053132 -2.9236598
-1.936425 -0.09197927 -2.9240334
-1.9365695 -0.09257354 -2.9235663
-1.9365503 -0.09377694 -2.9236875
-1.9365555 -0.09489775 -2.9237218
-1.9367008 -0.09549604 -2.9232516
-1.9367522 -0.09645198 -2.9231205
-1.9367594 -0.097581625 -2.923148
-1.9367918 -0.098621905 -2.923086
-1.9369383 -0.099224865 -2.922612
-1.9369938 -0.100183316 -2.9224663
-1.9372526 -0.10034663 -2.9215872
-1.9373991 -0.10094931 -2.9211137
-1.9376148 -0.10127611 -2.9203904
-1.9378047 -0.10170203 -2.9197593
-1.9379508 -0.10230315 -2.919287
-1.9383199 -0.10199693 -2.9180088
-1.9386424 -0.101868756 -2.916898
-1.9389868 -0.10164067 -2.9157078
-1.9391308 -0.10223347 -2.915242
-1.9394289 -0.1021822 -2.9142187
-1.9396603 -0.10240283 -2.9134364
-1.9398036 -0.10299222 -2.9129732
-1.9401207 -0.10283901 -2.911879
-1.9403286 -0.10314556 -2.9111814
-1.940644 -0.102983326 -2.9100938
-1.9407859 -0.10356685 -2.9096353
-1.9410138 -0.1037731 -2.9088645
-1.9412833 -0.103789374 -2.907941
-1.9414245 -0.104369804 -2.907485
-1.9416931 -0.10437981 -2.9065657
-1.9419396 -0.10448077 -2.9057257
-1.9420798 -0.10505781 -2.9052722
-1.9423462 -0.10505887 -2.90436
-1.9425907 -0.10515326 -2.9035273
-1.9428344 -0.10524309 -2.902696
-1.9429734 -0.105815195 -2.9022462
-1.9432162 -0.10590114 -2.9014194
-1.9434577 -0.10598477 -2.9005952
-1.943596 -0.1065538 -2.9001482
-1.9438572 -0.10653467 -2.899253
-1.9440768 -0.10670798 -2.898509
-1.9442143 -0.10727393 -2.8980644
-1.944453 -0.1073453 -2.89725
-1.9446911 -0.10741277 -2.8964374
-1.9449885 -0.10717989 -2.8954082
-1.9451249 -0.107740276 -2.8949678
-1.9453408 -0.107899524 -2.8942351
-1.9456158 -0.10775448 -2.8932858
-1.9457512 -0.108311474 -2.892848
-1.9460442 -0.10806088 -2.891833
-1.946336 -0.1078047 -2.8908217
-1.94647 -0.108356774 -2.890388
-1.946721 -0.10829807 -2.889526
-1.9470296 -0.10792725 -2.8884518
-1.9473753 -0.10734555 -2.8872402
-1.9475076 -0.10788963 -2.8868127
-1.9479084 -0.10698943 -2.8853981
-1.948403 -0.10556033 -2.8836372
-1.9485327 -0.10609423 -2.8832176
-1.9490427 -0.10454079 -2.881399
-1.949607 -0.10265777 -2.8793783
-1.9497334 -0.10317839 -2.8789694
-1.9503115 -0.10116622 -2.8768947
-1.9509612 -0.09871727 -2.8745563
-1.9514571 -0.09709862 -2.8727818
-1.9515783 -0.09759696 -2.8723903
-1.9520881 -0.09585393 -2.8705623
-1.9524653 -0.09485103 -2.869224
-1.9525838 -0.09533855 -2.8688412
-1.9529214 -0.09453736 -2.8676476
-1.9532204 -0.093945734 -2.866596
-1.9533372 -0.09442647 -2.8662183
-1.9536339 -0.0938255 -2.8651738
-1.953894 -0.093430795 -2.8642642
-1.954152 -0.09303746 -2.8633623
-1.9542669 -0.093510196 -2.8629909
-1.954488 -0.093325384 -2.8622246
-1.954691 -0.093245104 -2.8615255
-1.954805 -0.09371443 -2.8611567
-1.9550235 -0.09352401 -2.8603992
-1.9552244 -0.09343731 -2.8597078
-1.9553376 -0.09390325 -2.8593416
-1.9555026 -0.094034806 -2.8587825
-1.9556676 -0.09416262 -2.8582234
-1.9558482 -0.09418205 -2.8576052
-1.9559608 -0.09464491 -2.8572414
-1.9561074 -0.094880454 -2.85675
-1.9562364 -0.09523155 -2.8563247
-1.9563487 -0.095693484 -2.8559616
-1.9564946 -0.095926195 -2.8554723
-1.9566231 -0.096275575 -2.8550484
-1.9567351 -0.096736595 -2.8546863
-1.9568801 -0.096970595 -2.8542013
-1.9569923 -0.097428866 -2.8538382
-1.9571201 -0.09777624 -2.8534162
-1.9572319 -0.09823632 -2.8530548
-1.9573599 -0.098580666 -2.852632
-1.9574714 -0.099042684 -2.852272
-1.9575832 -0.099502474 -2.8519106
-1.9576948 -0.09996225 -2.8515494
-1.95779 -0.10054395 -2.8512506
-1.9579018 -0.10100406 -2.8508892
-1.9580446 -0.10123176 -2.85041
-1.9581406 -0.10180951 -2.8501084
-1.9582988 -0.10191778 -2.8495717
-1.9584104 -0.10237667 -2.849211
-1.958568 -0.10248215 -2.8486762
-1.9587256 -0.10257994 -2.8481402
-1.9588367 -0.10303698 -2.8477812
-1.9590241 -0.1028952 -2.847133
-1.9591956 -0.102870315 -2.8465447
-1.959306 -0.103324585 -2.8461878
-1.9595062 -0.1030574 -2.8454895
-1.9596757 -0.10302555 -2.8449066
-1.9598602 -0.102867104 -2.8442674
-1.9599694 -0.103316724 -2.8439143
-1.9601672 -0.1030347 -2.8432243
-1.9603497 -0.102868564 -2.8425915
-1.9604582 -0.10331479 -2.8422408
-1.9606391 -0.103144154 -2.841612
-1.9608049 -0.10309634 -2.8410423
-1.9610132 -0.10267576 -2.8403099
-1.9611202 -0.10311705 -2.8399632
-1.9612848 -0.10305918 -2.8393972
-1.9614904 -0.10262873 -2.8386724
-1.961597 -0.10306662 -2.8383284
-1.961732 -0.10324721 -2.8378735
-1.9619218 -0.10293209 -2.8372092
-1.9620277 -0.10336749 -2.836867
-1.9622155 -0.1030515 -2.8362088
-1.962429 -0.102486014 -2.835451
-1.9626153 -0.10216049 -2.8347983
-1.9627194 -0.10258975 -2.8344612
-1.9629453 -0.1018691 -2.8336537
-1.963089 -0.101914816 -2.833164
-1.9631925 -0.10234036 -2.8328297
-1.9633896 -0.101858005 -2.8321319
-1.9635472 -0.101746574 -2.8315866
-1.9636497 -0.10216865 -2.8312547
-1.9638337 -0.10178361 -2.8306072
-1.9639996 -0.101563044 -2.8300278
-1.9642146 -0.100839056 -2.8292577
-1.9643157 -0.10125496 -2.8289309
-1.9644954 -0.10086539 -2.8282976
-1.964702 -0.10018409 -2.8275583
-1.9648019 -0.100595504 -2.827235
-1.9649557 -0.10044254 -2.8267019
-1.9651259 -0.10010272 -2.8261023
-1.9652251 -0.10051105 -2.8257816
-1.9654462 -0.09960562 -2.824982
-1.9657131 -0.09818028 -2.8240018
-1.9658207 -0.098469846 -2.8236465
-1.9659182 -0.09887057 -2.8233318
-1.9662586 -0.09655674 -2.8220572
-1.966631 -0.09384208 -2.820656
-1.966725 -0.09422935 -2.8203518
-1.9668889 -0.09381568 -2.8197708
-1.671609 -0.20952187 -3.8488355
-1.6722549 -0.21217994 -3.8467467
-1.6818712 -0.20644669 -3.8131857
-1.6900665 -0.20186757 -3.7845998
-1.6973011 -0.1980464 -3.759377
-1.6978985 -0.20050462 -3.7574453
-1.7042391 -0.19734535 -3.73535
-1.7104928 -0.1941482 -3.7135525
-1.7110661 -0.19650717 -3.7116988
-1.7166586 -0.19379397 -3.6922145
-1.7225314 -0.19068475 -3.6717386
-1.7230827 -0.1929534 -3.6699562
-1.728379 -0.19027074 -3.651497
-1.733614 -0.18754819 -3.6332486
-1.7380121 -0.18561302 -3.617936
-1.7385348 -0.18776438 -3.6162453
-1.7431377 -0.18547703 -3.6002064
-1.7473981 -0.18347406 -3.5853655
-1.747904 -0.18555588 -3.5837297
-1.7518611 -0.18376613 -3.56995
-1.7552177 -0.18257846 -3.55828
-1.7557099 -0.18460388 -3.5566883
-1.7589936 -0.18340196 -3.545269
-1.7618005 -0.18269233 -3.5355248
-1.7640306 -0.18260922 -3.5278096
-1.7645077 -0.18457286 -3.5262668
-1.7671555 -0.18392627 -3.5170765
-1.7683183 -0.18503171 -3.513116
-1.7687892 -0.18696937 -3.5115933
-1.8362148 -0.10602056 -3.2740545
-1.8449974 -0.096773066 -3.2431843
-1.8453009 -0.09802217 -3.242203
-1.8457367 -0.09910273 -3.2407546
-1.847168 -0.09890014 -3.2357948
-1.8487056 -0.098532066 -3.2304578
-1.8490037 -0.09975816 -3.2294943
-1.8507538 -0.099063694 -3.223405
-1.8521087 -0.09886149 -3.2187097
-1.852401 -0.10006427 -3.2177646
-1.8536851 -0.09991845 -3.2133157
-1.8550934 -0.09957806 -3.2084284
-1.8553808 -0.10076112 -3.2074988
-1.8566532 -0.100568265 -3.2030888
-1.8579229 -0.100354575 -3.1986873
-1.859316 -0.0999404 -3.1938481
-1.8595964 -0.10109443 -3.1929414
-1.8607864 -0.10093147 -3.1888175
-1.8621001 -0.100564696 -3.1842554
-1.8623761 -0.10170028 -3.183363
-1.8634293 -0.101680204 -3.17972
-1.864542 -0.101551145 -3.175866
-1.8648142 -0.102671266 -3.1749856
-1.8657262 -0.10281525 -3.1718404
-1.8664485 -0.103233665 -3.1693645
-1.8678659 -0.10256175 -3.1644273
-1.8681328 -0.10366026 -3.163564
-1.869302 -0.10333443 -3.1595042
-1.8698826 -0.10392124 -3.1575286
-1.8701466 -0.105007924 -3.1566749
-1.8728848 -0.10208772 -3.1470485
-1.8847421 -0.08420618 -3.1050768
-1.9118953 -0.04081493 -3.00883
-1.9120616 -0.04149919 -3.0082922
-1.9123698 -0.04194581 -3.0072508
-1.9134237 -0.0411294 -3.0035627
-1.9135875 -0.041803468 -3.003033
-1.914313 -0.041513264 -3.0005085
-1.9152169 -0.040898338 -2.9973495
-1.9153775 -0.041559428 -2.99683
-1.9159688 -0.04146291 -2.9947803
-1.9165603 -0.041353766 -2.9927294
-1.917088 -0.04134627 -2.9909043
-1.9172456 -0.041995 -2.9903946
-1.9177701 -0.041977104 -2.98858
-1.9182945 -0.041948684 -2.9867651
-1.9184504 -0.04258997 -2.9862611
-1.9189095 -0.042666618 -2.9846776
-1.9193686 -0.04273471 -2.9830942
