ply
format ascii 1.0
element vertex 1359
property float x
property float y
property float z
end_header
0.02816466 -0.26933455 -0.29280573
0.028099848 -0.26873198 -0.2903312
0.028045118 -0.26828638 -0.2880503
0.028087176 -0.26939562 -0.28747106
0.028021047 -0.26875812 -0.28501466
0.027965149 -0.2682808 -0.28275195
0.0280067 -0.26937655 -0.28217977
0.027939161 -0.26870304 -0.27974036
0.027882017 -0.2681929 -0.27749464
0.027923055 -0.26927513 -0.2769295
0.027865253 -0.26874688 -0.274695
0.027817836 -0.26838338 -0.2726501
0.027759023 -0.26782912 -0.27042747
0.02779936 -0.26889285 -0.269872
0.027739888 -0.26832056 -0.26766056
0.027679857 -0.2677343 -0.26545462
0.02771971 -0.2687852 -0.26490584
0.027670119 -0.26836374 -0.26289293
0.02760898 -0.26774737 -0.26070452
0.02755858 -0.26730368 -0.25870508
0.027597755 -0.2683368 -0.2581656
0.027535424 -0.26768917 -0.25599357
0.02749509 -0.2674015 -0.25418815
0.027533833 -0.26842326 -0.2536546
0.027470421 -0.2677463 -0.25149974
0.027417842 -0.26724502 -0.2495304
0.02745613 -0.2682547 -0.24900317
0.02740299 -0.26773772 -0.24704401
0.027360728 -0.26739866 -0.24526729
0.02729527 -0.2666673 -0.2431413
0.027332902 -0.2676599 -0.24262297
0.027289655 -0.2672947 -0.24086012
0.02724604 -0.26691952 -0.23910251
0.0272833 -0.26790217 -0.23858939
0.027239107 -0.267512 -0.2368395
0.027194437 -0.26711017 -0.23509333
0.027231324 -0.26808286 -0.2345854
0.027186276 -0.26766932 -0.2328499
0.027140653 -0.2672425 -0.23111664
0.027106427 -0.26700532 -0.22956342
0.02714277 -0.26796377 -0.22906291
0.027096424 -0.267516 -0.22734514
0.027073136 -0.2674571 -0.22597589
0.027109152 -0.26840702 -0.22547986
0.027073642 -0.26813596 -0.22394474
0.0270379 -0.26785788 -0.22241537
0.027073596 -0.26879928 -0.22192378
0.027037283 -0.26850697 -0.22039995
0.027000738 -0.26820755 -0.21888171
0.0269759 -0.26810637 -0.21753901
0.027011141 -0.2690356 -0.21705377
0.0269738 -0.26871553 -0.21554631
0.026936142 -0.26838687 -0.21404324
0.026971055 -0.26930758 -0.21356246
0.02693283 -0.26896468 -0.21206497
0.026894433 -0.268616 -0.2105741
0.026929019 -0.26952815 -0.21009777
0.026902316 -0.26937774 -0.20878063
0.026863048 -0.269007 -0.2072994
0.026835784 -0.26884153 -0.20599002
0.026869938 -0.26974234 -0.20551963
0.026842255 -0.26956624 -0.2042158
0.026814308 -0.26938298 -0.2029157
0.026848193 -0.2702767 -0.20244902
0.026819838 -0.2700828 -0.20115447
0.026778739 -0.26966357 -0.19969851
0.026812326 -0.27054942 -0.19923592
0.026783831 -0.27034682 -0.19795835
0.026742077 -0.26990926 -0.19651483
0.026700133 -0.26946542 -0.19507739
0.026733266 -0.27033922 -0.19462109
0.026715636 -0.27031922 -0.19351012
0.02668536 -0.27007446 -0.19224255
0.026718248 -0.27094185 -0.19178961
0.02667498 -0.2704641 -0.19036743
0.026643878 -0.2701987 -0.189108
0.026676474 -0.27105826 -0.18865916
0.026644964 -0.27078214 -0.18740524
0.026613178 -0.2704987 -0.18615495
0.026568733 -0.26998815 -0.18475416
0.02660089 -0.27083632 -0.18431126
0.026555853 -0.27031112 -0.18291578
0.026523272 -0.27000505 -0.18168178
0.026555138 -0.2708454 -0.18124293
0.02652218 -0.27052912 -0.18001482
0.02648898 -0.27020618 -0.17879072
0.026520578 -0.27103946 -0.17835559
0.026474226 -0.27047774 -0.17698388
0.026440132 -0.27013308 -0.17576723
0.026419256 -0.270023 -0.1747148
0.026450451 -0.27084562 -0.17428523
0.026454713 -0.27118436 -0.17353772
0.02644711 -0.27130884 -0.17265363
0.026478171 -0.27212796 -0.1722259
0.026470687 -0.27225265 -0.17134927
0.026450226 -0.27214202 -0.17032611
0.026481101 -0.2729563 -0.16990091
0.026471922 -0.27304682 -0.16901529
0.026463903 -0.27315694 -0.16814704
0.026539128 -0.27477264 -0.16823104
0.026569929 -0.27558506 -0.1678068
0.026548322 -0.275447 -0.16679074
0.026614612 -0.27690265 -0.166768
0.02664539 -0.2777142 -0.16634424
0.022644203 -0.13527703 -0.42956522
0.022296753 -0.13176994 -0.41382366
0.022150172 -0.13065886 -0.4058456
0.022196693 -0.1318857 -0.40520495
0.022064947 -0.13092197 -0.39790788
0.021978544 -0.13049692 -0.39237073
0.022023754 -0.13168919 -0.39174813
0.02200258 -0.13205402 -0.3886894
0.021937551 -0.13186201 -0.38405833
0.021982023 -0.1330349 -0.38344586
0.021940624 -0.1331226 -0.3797355
0.021859376 -0.13269462 -0.37463054
0.021809407 -0.13265166 -0.37069285
0.021852627 -0.1337915 -0.37009764
0.021788795 -0.13355456 -0.36572695
0.021764651 -0.13381869 -0.36279097
0.021807171 -0.13493994 -0.36220548
0.02176888 -0.1350089 -0.35881805
0.021770487 -0.13559085 -0.35683742
0.021765016 -0.13607563 -0.35462978
0.021806858 -0.13717908 -0.35405356
0.021821477 -0.13792226 -0.35255417
0.021842122 -0.13874263 -0.35126808
0.02188377 -0.13984105 -0.3506945
0.02193214 -0.14102949 -0.35034513
0.0219742 -0.14213377 -0.34978396
0.022015879 -0.14323293 -0.34921
0.02207866 -0.14461763 -0.349328
0.022127796 -0.14581925 -0.3489938
0.022184005 -0.14711782 -0.348886
0.022225847 -0.14822133 -0.3483098
0.022289239 -0.14962073 -0.34842515
0.02235262 -0.15102212 -0.34853294
0.022394625 -0.15212992 -0.34795445
0.022458415 -0.15353991 -0.34806377
0.02252225 -0.15495251 -0.34816706
0.02256442 -0.15606461 -0.34758633
0.022621123 -0.15738046 -0.3474574
0.022678018 -0.15870033 -0.34732962
0.022749582 -0.16022828 -0.34764764
0.022791969 -0.16134611 -0.34706393
0.022856573 -0.16277924 -0.34715602
0.022921244 -0.16421533 -0.347243
0.022963794 -0.16533741 -0.34665707
0.023028793 -0.16678129 -0.3467436
0.023093872 -0.16822812 -0.34682515
0.023136586 -0.16935447 -0.34623697
0.023201998 -0.1708091 -0.346318
0.023275146 -0.1723777 -0.3466186
0.023348317 -0.17394908 -0.34691033
0.023391321 -0.1750833 -0.34631804
0.023457369 -0.17655438 -0.34639063
0.02353113 -0.17814068 -0.3466781
0.023574328 -0.17927988 -0.34608322
0.02364071 -0.18076085 -0.34614685
0.02371498 -0.18236063 -0.34642723
0.023758372 -0.18350482 -0.34582976
0.023832979 -0.18511319 -0.34610575
0.0239077 -0.18672575 -0.346376
0.02398274 -0.18834552 -0.34664604
0.024026444 -0.18949823 -0.34604412
0.024086086 -0.1908902 -0.34587863
0.024177287 -0.19275902 -0.34656972
0.024221215 -0.19391741 -0.3459648
0.024297122 -0.19555996 -0.34622306
0.024373235 -0.19720812 -0.3464782
0.02441738 -0.19837222 -0.34587035
0.024485828 -0.19990715 -0.34590882
0.02456237 -0.20156756 -0.3461547
0.024639219 -0.203235 -0.3463999
0.024683654 -0.2044069 -0.34578794
0.024752824 -0.20595954 -0.34582004
0.024838306 -0.2077659 -0.34626877
0.024882965 -0.20894352 -0.34565386
0.024960764 -0.21063514 -0.3458895
0.02503878 -0.21233246 -0.3461222
0.025083655 -0.21351577 -0.34550428
0.025162 -0.21522172 -0.34573254
0.025240565 -0.21693334 -0.34595785
0.02532755 -0.21877944 -0.34638563
0.025372768 -0.21997203 -0.34576288
0.025460439 -0.221833 -0.3461918
0.02553961 -0.22356293 -0.34640104
0.025585074 -0.22476189 -0.34577495
0.025664743 -0.22650312 -0.34598404
0.025744723 -0.22825144 -0.3461923
0.025790403 -0.22945611 -0.34556323
0.025879154 -0.23134767 -0.34597006
0.02595962 -0.23310967 -0.34616852
0.026031476 -0.23473601 -0.34615377
0.026077483 -0.23594923 -0.34552023
0.026158389 -0.23772375 -0.34571007
0.026230875 -0.2393646 -0.34569398
0.026277069 -0.24058282 -0.34505785
0.026358623 -0.24237294 -0.3452436
0.026440335 -0.24416766 -0.34542486
0.026486745 -0.24539159 -0.34478572
0.026569054 -0.2471996 -0.3449691
0.02666035 -0.24915595 -0.345349
0.026751654 -0.25111538 -0.3457195
0.026798444 -0.25234932 -0.34507513
0.026890313 -0.254322 -0.3454436
0.026946856 -0.25571728 -0.34501228
0.02699381 -0.25695553 -0.34436566
0.027086847 -0.25895306 -0.3447395
0.027170833 -0.26080388 -0.34490398
0.027254323 -0.2626487 -0.34504986
0.027301626 -0.26389626 -0.34439838
0.02737516 -0.26557904 -0.3443166
0.027430719 -0.2669645 -0.34384072
0.027478127 -0.26821473 -0.34318787
0.027496692 -0.26898393 -0.34191743
0.027469609 -0.26898885 -0.33968014
0.027516712 -0.27023116 -0.3390314
0.027507532 -0.27053 -0.33719462
0.027460616 -0.27019218 -0.33457658
0.027385244 -0.26937068 -0.3313824
0.027431572 -0.27059236 -0.33074442
0.027373899 -0.27005944 -0.32795298
0.027296716 -0.2691913 -0.3247799
0.027342396 -0.2703959 -0.32415086
0.02728321 -0.2698229 -0.32138115
0.027223375 -0.2692332 -0.31861836
0.027268466 -0.27042213 -0.3179975
0.02720772 -0.2698088 -0.3152468
0.027156089 -0.26934522 -0.31269854
0.027094241 -0.26870227 -0.30996498
0.02713846 -0.2698684 -0.30935603
0.027085518 -0.26936963 -0.30682796
0.027031917 -0.26885453 -0.30430493
0.027075592 -0.27000645 -0.30370343
0.027021246 -0.2694712 -0.30119294
0.02696643 -0.26892287 -0.29869112
0.02700957 -0.27006054 -0.29809704
0.026963692 -0.26965958 -0.2957938
0.026907494 -0.2690754 -0.29330912
0.026840879 -0.2683058 -0.29064405
0.026883213 -0.26942217 -0.29006112
0.026835628 -0.2689754 -0.28778362
0.026777538 -0.26834133 -0.28532493
0.026819358 -0.2694442 -0.28474903
0.026770584 -0.26896572 -0.28248975
0.026711177 -0.26829672 -0.28004915
0.026752483 -0.26938605 -0.2794803
0.026712427 -0.2690494 -0.27742058
0.026661959 -0.26852596 -0.2751846
0.026610939 -0.26798868 -0.2729542
0.026651544 -0.26905948 -0.272395
0.026599795 -0.26850298 -0.27017462
0.026547622 -0.26793483 -0.2679621
0.026587743 -0.2689928 -0.2674096
0.026545119 -0.26858723 -0.26538938
0.026502011 -0.26816916 -0.26337397
0.026541693 -0.26921576 -0.26282743
0.02648764 -0.26859784 -0.2606409
0.026443485 -0.26815173 -0.2586419
0.026388556 -0.26751012 -0.25646958
0.026427537 -0.26853827 -0.2559327
0.026382275 -0.268063 -0.2539489
0.026326165 -0.2673902 -0.25179297
0.026364692 -0.26840624 -0.2512624
0.02631832 -0.26790178 -0.2492938
0.026271654 -0.26738843 -0.24733356
0.026309757 -0.26839313 -0.2468089
0.026273001 -0.2680524 -0.24503383
0.02621458 -0.2673186 -0.24290995
0.026177095 -0.26695806 -0.24114735
0.026214572 -0.2679464 -0.24063125
0.026176441 -0.26756948 -0.23887523
0.026138036 -0.26718426 -0.23712581
0.026175132 -0.26816264 -0.23661491
0.02612518 -0.2675637 -0.2346959
0.026096528 -0.26734748 -0.23313262
0.026133245 -0.2683159 -0.23262691
0.02609323 -0.26788917 -0.23089686
0.026052743 -0.26745075 -0.22917046
0.026022982 -0.26720473 -0.2276249
0.026059162 -0.26815888 -0.22712663
0.026028916 -0.26790008 -0.22558774
0.025998266 -0.26763114 -0.22405198
0.026034126 -0.26857677 -0.22355817
0.026014134 -0.2684994 -0.22220151
0.02598271 -0.26821008 -0.22067676
0.026018271 -0.26914787 -0.22018707
0.025986368 -0.2688458 -0.21866907
0.025965396 -0.26874238 -0.21732643
0.02592181 -0.26822025 -0.21564996
0.025956888 -0.26914525 -0.21516694
0.025935188 -0.2690225 -0.21383426
0.025890628 -0.26847538 -0.2121688
0.025925377 -0.26939186 -0.21169023
0.0258916 -0.26903984 -0.21020009
0.025868943 -0.26889133 -0.20888253
0.025903402 -0.26979995 -0.20840806
0.025880333 -0.26964074 -0.20709607
0.025845472 -0.26926017 -0.20562069
0.025821839 -0.26908597 -0.20431647
0.025855858 -0.2699832 -0.20384794
0.02583182 -0.26979834 -0.2025493
0.025795873 -0.26938924 -0.20108871
0.025829602 -0.27027863 -0.20062429
0.02580486 -0.27007523 -0.19933529
0.025779849 -0.26986477 -0.19805
0.025743462 -0.26943913 -0.19661324
0.025776759 -0.2703172 -0.19615471
0.025739377 -0.2698693 -0.19471747
0.0257251 -0.26985285 -0.19360769
0.025758129 -0.2707238 -0.19315289
0.025731768 -0.2704774 -0.19188681
0.025705133 -0.2702239 -0.19062446
0.025737885 -0.27108774 -0.19017337
0.025698895 -0.27059802 -0.18875551
0.025671566 -0.27032623 -0.1875029
0.025643842 -0.2700449 -0.18625234
0.025676163 -0.27089733 -0.18580721
0.02563626 -0.27038226 -0.18440636
0.025608148 -0.2700885 -0.1831697
0.025640178 -0.27093312 -0.18272863
0.025599394 -0.2703957 -0.18133728
0.02557049 -0.2700815 -0.18010888
0.025602214 -0.27091828 -0.1796719
0.025572922 -0.27059373 -0.17844927
0.02553141 -0.27003464 -0.17707731
0.025501372 -0.26969188 -0.1758603
0.02553268 -0.27051738 -0.17542924
0.025514927 -0.2704063 -0.17437817
0.02552083 -0.27074558 -0.17363034
0.025551965 -0.27156675 -0.17320153
0.0255467 -0.271691 -0.17231874
0.025541611 -0.27181765 -0.17144243
0.02557259 -0.2726347 -0.17101577
0.02555524 -0.27252427 -0.1699947
0.025548488 -0.27261585 -0.1691088
0.02554284 -0.2727276 -0.16824062
0.02557356 -0.2735377 -0.16781761
0.025634842 -0.27493623 -0.16776371
0.025626209 -0.2749887 -0.16686603
0.025656909 -0.27579832 -0.16644327
0.025720118 -0.2772351 -0.16640766
0.021173628 -0.1345916 -0.42973277
0.020876115 -0.13109434 -0.41394132
0.020923464 -0.13234295 -0.4132893
0.02073551 -0.13031006 -0.40250567
0.020685552 -0.13018169 -0.39775574
0.020731283 -0.1313878 -0.39712593
0.020660937 -0.13095413 -0.3915925
0.020649374 -0.13134083 -0.3885891
0.020694278 -0.13252509 -0.3879707
0.020641688 -0.13231516 -0.38331127
0.02061113 -0.13241056 -0.3796104
0.020551145 -0.13207348 -0.3747439
0.020594746 -0.13322337 -0.37414345
0.020550473 -0.13309693 -0.36999077
0.020499649 -0.13286555 -0.36561957
0.020542415 -0.13399322 -0.3650307
0.020520167 -0.1341663 -0.36186293
0.02048538 -0.1341476 -0.35823235
0.020527491 -0.13525814 -0.35765243
0.02051625 -0.13557662 -0.3549942
0.020515863 -0.13605134 -0.35278177
0.020533158 -0.13678606 -0.35126963
0.020574724 -0.13788235 -0.35069716
0.020573929 -0.13834107 -0.34851417
0.020627318 -0.1396136 -0.34839776
0.02066875 -0.14070635 -0.34782714
0.020704232 -0.14170855 -0.34703413
0.020758297 -0.14299355 -0.34693357
0.02079976 -0.14408705 -0.34636256
0.020847503 -0.14527686 -0.34602168
0.020908112 -0.14666528 -0.34614715
0.020962501 -0.1479595 -0.3460391
0.021004127 -0.14905734 -0.34546578
0.02106496 -0.15045337 -0.34558016
0.021132292 -0.1519524 -0.3459179
0.021174112 -0.15305527 -0.345342
0.021228887 -0.15436107 -0.34522203
0.021283759 -0.15566958 -0.34510013
0.021325683 -0.1567753 -0.34452274
0.021387152 -0.15818964 -0.34462085
0.021448852 -0.15960951 -0.34471944
0.02151712 -0.16113536 -0.34503463
0.021559313 -0.16224818 -0.3444535
0.02161492 -0.16357514 -0.34432545
0.021677101 -0.1650087 -0.3444135
0.021719435 -0.1661251 -0.3438305
0.021781877 -0.16756508 -0.3439152
0.021851199 -0.16911784 -0.34421977
0.02189372 -0.17023923 -0.34363422
0.021956671 -0.17169206 -0.34371597
0.022026513 -0.1732584 -0.34401354
0.022089817 -0.17472048 -0.34409037
0.022132613 -0.175849 -0.3435011
0.022196151 -0.1773175 -0.34357455
0.022259776 -0.17878878 -0.34364277
0.022302736 -0.17992157 -0.34305125
0.02237347 -0.18151268 -0.34333214
0.022444522 -0.18311101 -0.3436129
0.02248769 -0.18424949 -0.3430184
0.02255897 -0.18585481 -0.34329188
0.022623476 -0.18734953 -0.3433479
0.022688137 -0.18884856 -0.3434017
0.022731582 -0.18999414 -0.34280348
0.02281073 -0.19173792 -0.34328365
0.022890227 -0.19349036 -0.3437629
0.02293394 -0.19464304 -0.343161
0.02300652 -0.19628257 -0.34341693
0.0230794 -0.1979293 -0.3436725
0.02314521 -0.19945821 -0.3437108
0.023189213 -0.20061871 -0.3431048
0.023269953 -0.20240384 -0.34356698
0.023343587 -0.2040705 -0.34381217
0.023387836 -0.20523742 -0.34320283
0.023461806 -0.20691255 -0.34344354
0.023536146 -0.20859629 -0.34368604
0.02358061 -0.2097689 -0.34307373
0.0236552 -0.21145976 -0.34330937
0.023729922 -0.21315488 -0.34353969
0.023804849 -0.21485569 -0.34376702
0.023849634 -0.21603683 -0.34315023
0.023925068 -0.217749 -0.34337756
0.024008164 -0.21959665 -0.34380674
0.024053203 -0.22078422 -0.34318662
0.02412902 -0.22250831 -0.34340137
0.024197401 -0.22410455 -0.34340683
0.024242627 -0.22529714 -0.34278408
0.024326798 -0.22717246 -0.34320155
0.024403451 -0.22891788 -0.34340805
0.024488008 -0.2308042 -0.34381467
0.024533605 -0.23200676 -0.3431867
0.024610754 -0.23376596 -0.34338364
0.02468029 -0.23539253 -0.34337398
0.024726082 -0.23660006 -0.34274343
0.024803761 -0.23837307 -0.3429337
0.024873761 -0.24001154 -0.34291878
0.024919739 -0.24122408 -0.3422856
0.024990002 -0.24286936 -0.34226796
0.025068548 -0.2446639 -0.3424527
0.02515534 -0.24660766 -0.34283584
0.025201637 -0.24782874 -0.3421982
0.02528887 -0.24978378 -0.34257653
0.025376268 -0.251744 -0.34294847
0.025422841 -0.25297222 -0.34230712
0.025478095 -0.2543568 -0.34187788
0.025542272 -0.25590307 -0.34166378
0.025588935 -0.25713354 -0.34102124
0.025669025 -0.25896904 -0.34118348
0.025765216 -0.26109812 -0.3417231
0.025845397 -0.26293933 -0.34186947
0.025892433 -0.26417974 -0.34122175
0.02596419 -0.26587003 -0.34115705
0.026027063 -0.26739973 -0.34087804
0.026074225 -0.26864353 -0.34022853
0.026086882 -0.26925656 -0.33877733
0.026065666 -0.26924774 -0.33655128
0.026112508 -0.27048296 -0.33590627
0.026098924 -0.27060902 -0.33387855
0.026050791 -0.270097 -0.331078
0.026010646 -0.26972717 -0.32847995
0.026056727 -0.27094242 -0.32784536
0.025989782 -0.27007157 -0.3246756
0.025930837 -0.26934314 -0.32170972
0.02597624 -0.2705406 -0.32108444
0.025933769 -0.2701097 -0.31851733
0.025873246 -0.26933974 -0.3155727
0.02591806 -0.27052155 -0.3149556
0.025874222 -0.2700544 -0.31240872
0.025829904 -0.269574 -0.30987045
0.025785038 -0.26907927 -0.30733958
0.025829041 -0.27023974 -0.30673358
0.025783373 -0.26972383 -0.30421397
0.025737168 -0.26919374 -0.30170187
0.025780635 -0.27034 -0.30110332
0.025733687 -0.2697898 -0.29860374
0.025686076 -0.26922312 -0.29610914
0.025728999 -0.27035514 -0.295518
0.025680713 -0.26976946 -0.2930371
0.025622724 -0.26899698 -0.2903749
0.025573323 -0.2683821 -0.28790918
0.02561541 -0.2694921 -0.28732955
0.025583489 -0.2692019 -0.28524655
0.025532799 -0.26855284 -0.2827986
0.025574403 -0.26965 -0.28222567
0.025532095 -0.2691542 -0.27997294
0.025489356 -0.26864663 -0.27772805
0.025530469 -0.269731 -0.2771618
0.025487062 -0.26920536 -0.27492815
0.025443109 -0.2686658 -0.27269998
0.025398675 -0.2681134 -0.27047852
0.025439065 -0.26917854 -0.2699223
0.025403403 -0.2687888 -0.26789477
0.025357777 -0.26820514 -0.26568964
0.025397705 -0.26925817 -0.26513976
0.025360942 -0.26883933 -0.26312748
0.02530464 -0.26804206 -0.2607587
0.025276538 -0.26778322 -0.25893992
0.025315795 -0.26881847 -0.25839934
0.02526786 -0.26817346 -0.25622812
0.025229158 -0.26770318 -0.25424454
0.02526796 -0.26872635 -0.25371024
0.025228614 -0.26823896 -0.25173554
0.02517903 -0.26755056 -0.24958695
0.025217371 -0.26856163 -0.24905898
0.025176922 -0.2680451 -0.2470995
0.025145927 -0.26770902 -0.24532466
0.025104644 -0.26717052 -0.24337672
0.025142359 -0.26816523 -0.24285729
0.025100425 -0.26760975 -0.24091835
0.025068073 -0.26723763 -0.23916265
0.025105385 -0.26822168 -0.2386488
0.025072379 -0.26783326 -0.23689963
0.025029019 -0.26723966 -0.23498099
0.025065929 -0.26821306 -0.23447269
0.025041914 -0.26799402 -0.2329094
0.02500759 -0.26757064 -0.23117842
0.024982983 -0.26733518 -0.22962567
0.02501938 -0.26829505 -0.22912444
0.024984132 -0.26784745 -0.22740604
0.02495877 -0.26759163 -0.22586635
0.024994817 -0.26854226 -0.22536995
0.024968887 -0.26827192 -0.2238355
0.024942722 -0.2679949 -0.22230704
0.02497844 -0.268937 -0.2218151
0.024962107 -0.26885083 -0.22046363
0.024935165 -0.26855323 -0.21894602
0.02490782 -0.26824564 -0.21743162
0.024943084 -0.2691756 -0.21694602
0.024915399 -0.26885802 -0.21544068
0.024887243 -0.26852903 -0.21393743
0.024922187 -0.26945043 -0.21345629
0.024893688 -0.26911142 -0.21196198
0.024864791 -0.26876244 -0.21047096
0.024899406 -0.2696753 -0.20999427
0.0248701 -0.26931491 -0.20851108
0.024851006 -0.2691562 -0.20719755
0.024821077 -0.2687794 -0.20572288
0.024855237 -0.2696802 -0.20525248
0.02483551 -0.26950446 -0.2039498
0.024804724 -0.26910555 -0.20248474
0.024838587 -0.26999855 -0.20201844
0.024818173 -0.26980427 -0.20072538
0.02479748 -0.26960284 -0.19943604
0.024831075 -0.2704887 -0.19897345
0.024809884 -0.27027476 -0.19768828
0.024778146 -0.26984704 -0.19625315
0.024756495 -0.26962036 -0.19497739
0.024789657 -0.27049488 -0.19452073
0.024767503 -0.2702554 -0.193249
0.024745286 -0.270013 -0.19198404
0.024778172 -0.27088037 -0.1915311
0.02475545 -0.2706252 -0.1902702
0.024721427 -0.27014008 -0.18885347
0.024754023 -0.27099964 -0.1884046
0.024730487 -0.27072388 -0.18715185
0.024706686 -0.27044094 -0.18590279
0.024671748 -0.26993087 -0.18450336
0.024703912 -0.27077907 -0.18406045
0.024679575 -0.27048096 -0.18282337
0.024643648 -0.26994592 -0.18143162
0.024675515 -0.27078632 -0.18099278
0.024650512 -0.27047056 -0.17976592
0.024614064 -0.2699203 -0.17838858
0.024645636 -0.27075285 -0.17795382
0.024620028 -0.27042055 -0.17673784
0.024593914 -0.27007622 -0.17552233
0.024579395 -0.269967 -0.17447115
0.02461059 -0.27078962 -0.17404157
0.02461808 -0.271128 -0.17329419
0.02462621 -0.2714788 -0.17255835
0.024657298 -0.2722986 -0.17213027
0.024654452 -0.27242383 -0.17125371
0.024628552 -0.27207586 -0.17007801
0.024659427 -0.27289012 -0.16965282
0.024655832 -0.27299732 -0.16877839
0.024651844 -0.27309555 -0.1679031
0.024711553 -0.2745011 -0.16785441
0.024742335 -0.27531287 -0.1674305
0.02473792 -0.27540073 -0.16655637
0.024801278 -0.2768824 -0.16654919
0.024832053 -0.27769402 -0.16612537
0.019663587 -0.13377377 -0.42470157
0.019503754 -0.13167961 -0.41344547
0.019349411 -0.12965064 -0.40262023
0.019395605 -0.13086896 -0.40198404
0.019345373 -0.13050918 -0.39655375
0.019291779 -0.1300833 -0.3910258
0.019336877 -0.1312726 -0.39040476
0.019337818 -0.13173194 -0.38763517
0.019299278 -0.13153177 -0.3829887
0.019343669 -0.1327025 -0.38237736
0.019323312 -0.1327923 -0.37868124
0.019282235 -0.1325284 -0.37404826
0.01925047 -0.13241206 -0.3699088
0.019293638 -0.13355057 -0.36931428
0.01925031 -0.13322732 -0.3647126
0.019236645 -0.13339803 -0.36153048
0.019279053 -0.13451645 -0.36094645
0.01924432 -0.1343197 -0.35686162
0.019239776 -0.1346315 -0.354185
0.019244753 -0.13510227 -0.3519636
0.019286327 -0.13619855 -0.35139114
0.019291261 -0.1366632 -0.34920064
0.01930101 -0.13720778 -0.34724346
0.019342227 -0.13829482 -0.3466758
0.019378457 -0.13929506 -0.34589195
0.019408997 -0.14019565 -0.34486628
0.019450132 -0.1412806 -0.34429973
0.019496933 -0.14246465 -0.3439732
0.019538352 -0.14355479 -0.34341687
0.019595874 -0.14492844 -0.3435348
0.019637128 -0.1460163 -0.34296674
0.019695004 -0.14739819 -0.3430856
0.019753084 -0.14878517 -0.34320414
0.019794501 -0.14987734 -0.3426338
0.019858314 -0.15136853 -0.34297135
0.01991124 -0.15266716 -0.3428588
0.019952815 -0.15376362 -0.34228623
0.02000582 -0.15506503 -0.34216794
0.020064559 -0.15647039 -0.34227034
0.020129181 -0.15798321 -0.34259534
0.020171002 -0.15908611 -0.3420194
0.02022446 -0.16039956 -0.3418946
0.020283848 -0.16182123 -0.34199208
0.020325802 -0.16292769 -0.3414143
0.020385345 -0.16435443 -0.34150556
0.020445053 -0.16578543 -0.34159455
0.02048717 -0.16689613 -0.34101456
0.02054712 -0.16833358 -0.34110025
0.020613214 -0.16988488 -0.34140524
0.02067352 -0.17133154 -0.34148613
0.020715907 -0.1724494 -0.3409024
0.020776529 -0.17390394 -0.34098282
0.020837314 -0.17536274 -0.34106097
0.020879865 -0.17648487 -0.340475
0.020940736 -0.17794707 -0.34054393
0.021007925 -0.1795281 -0.34082955
0.021050662 -0.1806552 -0.340241
0.02111825 -0.18224631 -0.34052512
0.021179903 -0.18372789 -0.34059125
0.021247823 -0.18532816 -0.34086695
0.021290857 -0.18646307 -0.3402743
0.021352863 -0.18795455 -0.34033173
0.021421367 -0.18956983 -0.34060317
0.021464588 -0.19070973 -0.3400079
0.021539835 -0.19245452 -0.34049046
0.021608837 -0.19408321 -0.3407514
0.021652304 -0.19522952 -0.34015283
0.021728098 -0.1969898 -0.3406237
0.021797668 -0.19863348 -0.34087703
0.021867607 -0.20028585 -0.34113258
0.021911424 -0.20144138 -0.34052914
0.021975102 -0.20297639 -0.3405673
0.022052012 -0.20476589 -0.34102315
0.022096045 -0.20592712 -0.34041676
0.022166856 -0.20760232 -0.3406604
0.022237957 -0.20928483 -0.3409037
0.022282206 -0.21045177 -0.34029433
0.022346715 -0.2120094 -0.3403171
0.022418242 -0.21370372 -0.34055048
0.022496715 -0.2155338 -0.3409882
0.022541285 -0.21670929 -0.34037435
0.022613367 -0.21841832 -0.3405995
0.022685591 -0.22013158 -0.3408193
0.022730384 -0.22131275 -0.3402025
0.022796053 -0.22290076 -0.3402119
0.022875842 -0.2247649 -0.34063458
0.02292085 -0.22595178 -0.34001482
0.022994014 -0.22768933 -0.340225
0.023074307 -0.22956808 -0.34063503
0.023140866 -0.23117915 -0.34063292
0.023186196 -0.23237458 -0.34000868
0.02326014 -0.23413245 -0.34020898
0.023341319 -0.23603417 -0.34060746
0.023386894 -0.23723601 -0.3399799
0.023461336 -0.23900767 -0.34017065
0.023521692 -0.24050237 -0.33995533
0.02356743 -0.24170852 -0.3393255
0.023642393 -0.24349366 -0.3395105
0.023710372 -0.24514158 -0.33949277
0.02378589 -0.24694028 -0.33967614
0.023831919 -0.24815428 -0.3390422
0.023922365 -0.25025222 -0.33961928
0.023983464 -0.25176752 -0.33938733
0.024029717 -0.2529872 -0.3387504
0.024091205 -0.25451103 -0.33852196
0.024175119 -0.25648433 -0.33888778
0.024259424 -0.25846708 -0.33925292
0.024305997 -0.25969535 -0.33861154
0.02437582 -0.2613902 -0.33858046
0.024437997 -0.26293227 -0.33834288
0.024484713 -0.26416415 -0.3376996
0.024576316 -0.26629975 -0.33821556
0.024622442 -0.26752087 -0.337551
0.024669306 -0.26875684 -0.3369056
0.024684558 -0.26935416 -0.33545655
0.024684351 -0.26963785 -0.33362573
0.024660662 -0.26944408 -0.33121696
0.024707012 -0.27066648 -0.33057866
0.024682526 -0.2704524 -0.3281786
0.02463391 -0.2697453 -0.3252
0.024679702 -0.27095273 -0.32456946
0.024630157 -0.27022094 -0.32160547
0.024587987 -0.2696352 -0.31884542
0.024633145 -0.27082628 -0.31822345
0.024589976 -0.2702149 -0.3154731
0.024554288 -0.26975304 -0.3129248
0.024510087 -0.2691138 -0.3101937
0.024554389 -0.2702821 -0.30958363
0.024517369 -0.26978484 -0.3070553
0.024479827 -0.26927346 -0.30453452
0.024523584 -0.2704275 -0.3039319
0.024485236 -0.2698948 -0.30142233
0.024446344 -0.26934797 -0.29892027
0.024489565 -0.2704878 -0.2983251
0.024449864 -0.2699197 -0.29583424
0.024409633 -0.2693374 -0.2933509
0.024360625 -0.26857087 -0.29068866
0.024403011 -0.26968867 -0.29010496
0.024369689 -0.2692414 -0.28782612
0.024335986 -0.2687836 -0.2855565
0.024377888 -0.26988858 -0.2849795
0.024335036 -0.26923698 -0.28253412
0.024300043 -0.2687452 -0.28028026
0.02434143 -0.26983666 -0.27971032
0.02430576 -0.2693269 -0.27746773
0.02426966 -0.26880544 -0.275233
0.024233015 -0.26827002 -0.27300376
0.024273673 -0.26934224 -0.27244386
0.024236301 -0.26878765 -0.27022463
0.024207084 -0.26840046 -0.26819485
0.024247287 -0.2694606 -0.26764128
0.024208788 -0.26887584 -0.2654396
0.024178524 -0.26846078 -0.26342636
0.024218265 -0.2695088 -0.2628791
0.024169803 -0.26870906 -0.26051292
0.024138471 -0.26826528 -0.25851643
0.02410658 -0.2678077 -0.25652352
0.024145622 -0.26883727 -0.2559859
0.024113204 -0.2683651 -0.2540043
0.024080351 -0.26788145 -0.2520286
0.02411896 -0.26889968 -0.2514969
0.024085468 -0.268399 -0.24953015
0.024051541 -0.26788697 -0.24756932
0.024089718 -0.26889378 -0.24704356
0.024064183 -0.26855552 -0.24526882
0.024029195 -0.2680157 -0.24332245
0.023993792 -0.2674646 -0.24138206
0.02403135 -0.26845506 -0.24086484
0.023995366 -0.2678884 -0.23893476
0.023977213 -0.2676975 -0.23735982
0.024014398 -0.268678 -0.23684782
0.023977326 -0.268083 -0.23493065
0.023949075 -0.26767302 -0.23319352
0.023985852 -0.26864284 -0.23268709
0.02396631 -0.2684154 -0.23113094
0.02393714 -0.2679811 -0.22940639
0.023916923 -0.2677357 -0.22785936
0.023953177 -0.26869196 -0.22736
0.02392309 -0.26823354 -0.22564812
0.023902131 -0.2679679 -0.22411427
0.023938043 -0.26891494 -0.22361973
0.023907114 -0.26843423 -0.22192208
0.02389474 -0.26834804 -0.22056855
0.023930324 -0.26928654 -0.22007848
0.023898592 -0.26878396 -0.21839443
0.023875987 -0.268475 -0.21688326
0.023862675 -0.2683637 -0.21554554
0.023897775 -0.26928943 -0.21506214
0.023874313 -0.26895836 -0.21356058
0.023850607 -0.26862025 -0.21206468
0.023885379 -0.26953742 -0.21158575
0.02386125 -0.26918793 -0.2100977
0.02384651 -0.269039 -0.20877975
0.023880992 -0.26994836 -0.2083049
0.023865914 -0.2697901 -0.20699364
0.023840634 -0.26941055 -0.20551914
0.023815094 -0.2690241 -0.20405038
0.02384912 -0.26992133 -0.20358185
0.02383296 -0.2697351 -0.20228304
0.023806652 -0.2693281 -0.20082508
0.023840373 -0.27021748 -0.20036066
0.023823604 -0.27001446 -0.1990728
0.023806551 -0.26980433 -0.19778864
0.023779534 -0.2693769 -0.19635157
0.02381283 -0.270255 -0.19589305
0.023795184 -0.27002868 -0.19462024
0.02377709 -0.2697912 -0.19334817
0.023810118 -0.27066213 -0.19289337
0.023791708 -0.270416 -0.19162835
0.023762813 -0.26994076 -0.19020693
0.023795543 -0.27080387 -0.18975621
0.023776444 -0.2705394 -0.18850096
0.023756964 -0.2702656 -0.18724783
0.023737213 -0.26998454 -0.18599834
0.023769537 -0.27083698 -0.1855532
0.023739278 -0.270325 -0.18415557
0.023718836 -0.27002573 -0.18291594
0.023750866 -0.27087036 -0.1824749
0.02371977 -0.27033654 -0.1810871
0.023688417 -0.2697956 -0.17970473
0.023720123 -0.27063173 -0.1792681
0.023698779 -0.2703076 -0.1780475
0.02367697 -0.26997206 -0.17682767
0.023655439 -0.2696414 -0.17561962
0.023686742 -0.2704669 -0.17518856
0.02367507 -0.27035046 -0.17413464
0.0236842 -0.27068934 -0.17338693
0.02371534 -0.27151054 -0.1729581
0.023725055 -0.27186155 -0.17222336
0.023714446 -0.2717656 -0.17120272
0.023745429 -0.27258265 -0.17077605
0.023733512 -0.27245665 -0.16974567
0.023722423 -0.27234793 -0.1687328
0.023730632 -0.272663 -0.16799462
0.023761347 -0.27347305 -0.16757162
0.02381835 -0.274862 -0.16751133
0.023825256 -0.27514765 -0.16675957
0.023855979 -0.27595785 -0.16633648
0.023908744 -0.27725428 -0.16621315
0.018207632 -0.13308838 -0.4248451
0.018083643 -0.1310111 -0.41358545
0.018130992 -0.13225976 -0.4129334
0.018010005 -0.13021669 -0.40212062
0.017976083 -0.1298646 -0.39668873
0.018021733 -0.13106857 -0.39606002
0.01798427 -0.13063586 -0.3905381
0.017992564 -0.13109867 -0.38776776
0.018037416 -0.13228151 -0.3871501
0.018012213 -0.13207571 -0.3825086
0.018002443 -0.1321705 -0.37881145
0.017975217 -0.13191311 -0.3741771
0.018018795 -0.13306233 -0.37357697
0.017998816 -0.13294102 -0.36944193
0.017969338 -0.1326243 -0.36483887
0.018012045 -0.13375062 -0.3642507
0.018007053 -0.13391766 -0.36107183
0.01798448 -0.13372661 -0.3569858
0.018026486 -0.13483436 -0.35640737
0.01802899 -0.13514319 -0.35373336
0.018039517 -0.13561162 -0.35151404
0.018050106 -0.13607891 -0.349323
0.018091487 -0.13717024 -0.34875312
0.018105937 -0.13771284 -0.3467977
0.01814292 -0.13871342 -0.34601375
0.018184114 -0.1397998 -0.34544647
0.018216211 -0.14069974 -0.34442136
0.018262163 -0.14188337 -0.3440949
0.018303327 -0.14296909 -0.34352797
0.01834471 -0.14405924 -0.34297162
0.0183999 -0.14543387 -0.3430887
0.018455332 -0.1468146 -0.34320778
0.01849666 -0.14790462 -0.34263858
0.018552378 -0.14929262 -0.34275627
0.01861295 -0.15078227 -0.3430941
0.018654471 -0.15187728 -0.3425223
0.018705811 -0.15317659 -0.34240916
0.018757192 -0.15447722 -0.34229103
0.018798819 -0.15557513 -0.34171772
0.01885521 -0.15698148 -0.34181923
0.018916704 -0.15849563 -0.34214306
0.018968537 -0.15980834 -0.3420184
0.019010417 -0.16091263 -0.34144175
0.019067436 -0.1623353 -0.34153837
0.019124558 -0.1637609 -0.34162983
0.019166594 -0.16486949 -0.34105095
0.019223955 -0.16630149 -0.34113908
0.019281475 -0.16773775 -0.34122503
0.019323675 -0.16885062 -0.34064388
0.019386632 -0.17040324 -0.34094775
0.019444585 -0.1718509 -0.34102774
0.019502778 -0.17330432 -0.34110838
0.019545246 -0.17442429 -0.34052354
0.019603685 -0.1758841 -0.3406008
0.019662127 -0.17734517 -0.34066996
0.01970476 -0.17846942 -0.3400829
0.019768827 -0.18005177 -0.34036735
0.019833189 -0.18164137 -0.34065178
0.019876037 -0.1827713 -0.34006175
0.019935329 -0.18425387 -0.34012702
0.020000126 -0.18585545 -0.34040156
0.020059695 -0.18734579 -0.3404592
0.020102812 -0.18848284 -0.33986545
0.020168202 -0.19009943 -0.34013572
0.020239389 -0.19184233 -0.34061864
0.020282751 -0.19298577 -0.34002155
0.02034863 -0.1946158 -0.34028134
0.020420395 -0.19637421 -0.34075263
0.020486739 -0.19801636 -0.34100625
0.020530444 -0.19916902 -0.34040433
0.020597246 -0.20082271 -0.34065872
0.020658487 -0.20235656 -0.3406971
0.020702386 -0.20351425 -0.34009257
0.020775385 -0.2053054 -0.34054697
0.020842947 -0.20697907 -0.3407909
0.020887092 -0.20814314 -0.34018302
0.020955049 -0.20982699 -0.34042516
0.021017136 -0.21138348 -0.3404482
0.021085422 -0.2130763 -0.34068185
0.021129858 -0.2142482 -0.3400699
0.021204412 -0.21607992 -0.34050617
0.021273253 -0.21778746 -0.3407316
0.021317935 -0.21896578 -0.3401163
0.02138703 -0.22068036 -0.34033492
0.02145027 -0.2222672 -0.34034458
0.021495145 -0.22345053 -0.33972666
0.021571 -0.22531633 -0.34014788
0.021640921 -0.22705233 -0.3403584
0.02171719 -0.22892919 -0.3407688
0.021762438 -0.23012248 -0.34014568
0.021826636 -0.23173454 -0.34014273
0.021897333 -0.23349088 -0.34034333
0.021942774 -0.23468918 -0.3397176
0.02202004 -0.23659255 -0.34011462
0.022091247 -0.23836267 -0.34030572
0.022136927 -0.23956737 -0.33967665
0.022195702 -0.24106275 -0.33946073
0.022267424 -0.24284637 -0.33964604
0.022332951 -0.24449317 -0.33962855
0.022378877 -0.24570428 -0.33899614
0.02245125 -0.24750431 -0.3391783
0.022536831 -0.24959998 -0.33975586
0.022583032 -0.25081822 -0.3391197
0.022642558 -0.25233418 -0.33888716
0.022702392 -0.25385725 -0.33865887
0.022748698 -0.25507838 -0.3380212
0.0228287 -0.25705335 -0.33838555
0.022909071 -0.25903773 -0.33874923
0.022976428 -0.2607314 -0.3387184
0.023023084 -0.26196188 -0.33807588
0.023083659 -0.26350462 -0.33783773
0.023170523 -0.26563796 -0.33835417
0.023217395 -0.26687405 -0.33770868
0.023263603 -0.2680951 -0.33704415
0.023282148 -0.26869398 -0.3355948
0.023328908 -0.26992708 -0.3349509
0.023333432 -0.27020875 -0.33312184
0.023316776 -0.27001202 -0.3307157
0.023299592 -0.26980138 -0.32831493
0.023345703 -0.27101734 -0.32767996
0.023306476 -0.27030626 -0.32470486
0.023266654 -0.26957905 -0.32173988
0.02331211 -0.27077794 -0.32111385
0.023278538 -0.27018857 -0.31835702
0.023244273 -0.2695814 -0.31560576
0.023289133 -0.27076462 -0.3149879
0.02326129 -0.27029946 -0.3124425
0.023225687 -0.2696566 -0.30971462
0.023196766 -0.26916313 -0.30718547
0.0232408 -0.27032432 -0.3065791
0.02321108 -0.26980963 -0.3040613
0.023180816 -0.26928073 -0.30155092
0.023224305 -0.27042767 -0.300952
0.023193236 -0.26987755 -0.29845285
0.023161635 -0.26931322 -0.29596126
0.023204587 -0.27044594 -0.29536977
0.023172164 -0.26986033 -0.29288933
0.023131754 -0.26909018 -0.2902303
0.023105718 -0.26864636 -0.28795072
0.023147866 -0.26975775 -0.28737035
0.023121212 -0.26929697 -0.28510338
0.023086444 -0.2686492 -0.2826572
0.023128077 -0.26974705 -0.28208393
0.023100117 -0.26925233 -0.2798327
0.023071734 -0.26874596 -0.27758938
0.023112876 -0.26983103 -0.27702278
0.023083815 -0.26930657 -0.27479067
0.023054212 -0.2687682 -0.27256405
0.02302412 -0.26821697 -0.27034414
0.023064539 -0.26928282 -0.26978755
0.023041587 -0.268893 -0.26776013
0.02301036 -0.26831168 -0.26555777
0.023050318 -0.26936543 -0.2650075
0.023026312 -0.26894772 -0.2629966
0.02298594 -0.26815173 -0.26062962
0.022961069 -0.267711 -0.2586325
0.023000326 -0.2687463 -0.2580919
0.022974702 -0.26828605 -0.25610134
0.022948759 -0.2678169 -0.2541191
0.022987584 -0.2688408 -0.25358444
0.022960981 -0.2683545 -0.25161108
0.022933956 -0.26785693 -0.24964367
0.02297235 -0.26886943 -0.24911495
0.022944674 -0.26835474 -0.24715646
0.022924801 -0.26801914 -0.24538115
0.022896288 -0.2674824 -0.24343413
0.022934062 -0.2684785 -0.24291396
0.022904903 -0.2679248 -0.2409759
0.022875385 -0.26736116 -0.23904516
0.022912728 -0.26834592 -0.23853093
0.022899276 -0.26815304 -0.23695776
0.022868678 -0.2675611 -0.23503993
0.02290564 -0.2685359 -0.23453091
0.022882858 -0.2681236 -0.23279582
0.022868183 -0.26789844 -0.23123918
0.022844682 -0.2674668 -0.22951409
0.0228811 -0.2684274 -0.22901249
0.022865584 -0.26817998 -0.22746721
0.02284116 -0.2677242 -0.2257548
0.022877235 -0.26867554 -0.22525801
0.022860963 -0.2684079 -0.22372591
0.022835696 -0.26792985 -0.2220277
0.022871422 -0.26887193 -0.22153576
0.022862967 -0.26878408 -0.2201837
0.022836883 -0.26828414 -0.2184991
0.022819128 -0.26797748 -0.21698745
0.02285437 -0.2689067 -0.2165022
0.022844976 -0.26879382 -0.21516593
0.02282638 -0.26846504 -0.21366389
0.022861315 -0.26938647 -0.21318273
0.022842295 -0.26904637 -0.21168858
0.022823017 -0.2686992 -0.21020006
0.022857632 -0.26961207 -0.20972335
0.022846812 -0.26946148 -0.20840685
0.02283578 -0.2693052 -0.20709519
0.022815343 -0.26892787 -0.20562021
0.022849534 -0.2698294 -0.20514946
0.022828687 -0.26944095 -0.20368245
0.022816587 -0.26925662 -0.20238324
0.022850472 -0.2701503 -0.20191656
0.022828843 -0.26974133 -0.20046036
0.022816112 -0.26954016 -0.19917212
0.022849707 -0.27042603 -0.19870952
0.022836573 -0.27021423 -0.19742683
0.022814212 -0.26978487 -0.1959915
0.022800611 -0.26956046 -0.1947183
0.02283377 -0.27043498 -0.19426163
0.022819588 -0.2701958 -0.19299102
0.022805227 -0.2699516 -0.1917256
0.022838118 -0.27081898 -0.19127266
0.022813909 -0.27034178 -0.18985298
0.022798851 -0.2700792 -0.18859732
0.022831444 -0.27093875 -0.18814847
0.022815887 -0.2706633 -0.1868968
0.022800054 -0.2703806 -0.18564877
0.022774627 -0.26987088 -0.18425067
0.022806792 -0.27071908 -0.18380775
0.022790268 -0.27041814 -0.18256958
0.022764012 -0.26988658 -0.18118133
0.022795878 -0.27072698 -0.18074249
0.022769196 -0.27018407 -0.17936185
0.022751886 -0.26986185 -0.17814085
0.022783455 -0.2706944 -0.17770608
0.022765568 -0.2703572 -0.17648771
0.022747908 -0.27002493 -0.1752811
0.022739468 -0.26991 -0.17422688
0.02277066 -0.27073264 -0.1737973
0.022781396 -0.27107087 -0.17305018
0.022792717 -0.27142262 -0.17231528
0.022823801 -0.27224243 -0.17188719
0.022816198 -0.27214518 -0.17086767
0.022807458 -0.27202067 -0.16983697
0.022838334 -0.27283493 -0.16941178
0.022830248 -0.272725 -0.16840003
0.02284007 -0.27303934 -0.16766244
0.022895139 -0.27442738 -0.16760233
0.022925917 -0.27523914 -0.16717845
0.022934515 -0.27552408 -0.16642731
0.022985674 -0.27681977 -0.16630416
0.023016453 -0.27763137 -0.16588032
0.016774679 -0.13305873 -0.4223397
0.016711168 -0.1315979 -0.41309434
0.016625779 -0.12959802 -0.40236154
0.016671987 -0.13081667 -0.4017252
0.016651135 -0.13039185 -0.39609748
0.016630825 -0.12997825 -0.39060876
0.016675916 -0.13116737 -0.38998783
0.01668831 -0.13155381 -0.3870049
0.016676994 -0.13135672 -0.38237137
0.016721362 -0.13252664 -0.38176045
0.01672522 -0.1327003 -0.37830725
0.016708372 -0.1323632 -0.37346902
0.016703628 -0.13232264 -0.36954483
0.016746797 -0.13346106 -0.36895037
0.016730895 -0.1331432 -0.36436492
0.016728064 -0.13314648 -0.36072946
0.01677042 -0.13426349 -0.36014616
0.016759511 -0.13406524 -0.35606316
0.016765678 -0.13428749 -0.3531557
0.016774897 -0.13458441 -0.35048786
0.01681633 -0.13567717 -0.34991723
0.016832117 -0.13613527 -0.34772143
0.016844196 -0.13650094 -0.34532186
0.016885227 -0.13758306 -0.34475678
0.01691881 -0.13848047 -0.34373185
0.016948657 -0.13928542 -0.34248734
0.01698956 -0.140364 -0.3419241
0.017034203 -0.14153564 -0.34158617
0.017075222 -0.1426172 -0.34102798
0.017127827 -0.14398654 -0.34115404
0.017168835 -0.145068 -0.3405893
0.017217753 -0.14634591 -0.34048337
0.017270757 -0.1477258 -0.34060538
0.017311906 -0.14881085 -0.34003878
0.01736513 -0.15019666 -0.34015617
0.017414488 -0.1514861 -0.3400444
0.017455764 -0.15257473 -0.33947593
0.017509297 -0.15396865 -0.3395838
0.017558988 -0.15526699 -0.33947018
0.01761282 -0.15666866 -0.33957383
0.017654313 -0.15776302 -0.33900237
0.017712526 -0.15927432 -0.33932367
0.01776683 -0.16068871 -0.33942422
0.017808516 -0.16178805 -0.33885017
0.017858809 -0.16310216 -0.33872455
0.017913388 -0.16452383 -0.3388142
0.017955208 -0.1656267 -0.33823827
0.018010149 -0.16705757 -0.33833033
0.018069569 -0.1686008 -0.33863845
0.0181248 -0.17003949 -0.33872277
0.018166889 -0.1711495 -0.33814314
0.018222366 -0.17259458 -0.33822408
0.018278055 -0.1740454 -0.33830568
0.018320315 -0.1751597 -0.3377238
0.018376127 -0.17661394 -0.33779624
0.018436683 -0.17818697 -0.33808517
0.018479122 -0.17930622 -0.3375007
0.01854005 -0.18088926 -0.33778802
0.018596554 -0.18236138 -0.33785483
0.01865321 -0.18383774 -0.3379194
0.018695924 -0.1849641 -0.33733124
0.018752765 -0.18644534 -0.33738968
0.018814586 -0.18805186 -0.33766472
0.018857487 -0.18918322 -0.33707395
0.018924372 -0.19091757 -0.337557
0.018991536 -0.19265887 -0.3380361
0.019034704 -0.19379732 -0.3374416
0.01909744 -0.19542798 -0.337704
0.019165304 -0.19718805 -0.33817717
0.019233445 -0.1989553 -0.33864674
0.019276993 -0.2001037 -0.33804706
0.019335615 -0.20163164 -0.3380887
0.019399425 -0.20329048 -0.33834043
0.01944316 -0.20444387 -0.33773816
0.019507157 -0.2061077 -0.33797947
0.019571507 -0.20778087 -0.3382239
0.019615458 -0.20893997 -0.33761865
0.019674964 -0.21049145 -0.33764789
0.019739827 -0.21217792 -0.3378848
0.019804828 -0.21386833 -0.3381159
0.019849077 -0.21503527 -0.33750653
0.01991446 -0.21673572 -0.33773553
0.019974759 -0.21830802 -0.33775267
0.020019202 -0.21947992 -0.3371407
0.020085033 -0.22119233 -0.33736014
0.020151202 -0.22291327 -0.33758092
0.020195853 -0.22409087 -0.33696598
0.020267665 -0.22595498 -0.337385
0.020339753 -0.22782631 -0.3378005
0.020401144 -0.22942732 -0.33780023
0.020446153 -0.23061422 -0.33718044
0.020518921 -0.23250349 -0.33758968
0.020591907 -0.23439844 -0.33799314
0.020637177 -0.23559245 -0.33736965
0.020704959 -0.23735604 -0.3375636
0.020761726 -0.2388411 -0.3373495
0.020807168 -0.2400394 -0.33672377
0.020869745 -0.24167174 -0.33670846
0.020926906 -0.24316718 -0.33649373
0.021001313 -0.2450995 -0.33687958
0.021047022 -0.24630494 -0.3362501
0.021121839 -0.24824809 -0.3366306
0.02118528 -0.24990329 -0.3366061
0.021231206 -0.25111446 -0.33597365
0.021289047 -0.25262782 -0.33574682
0.021347323 -0.25415212 -0.33552915
0.021417368 -0.25597548 -0.33570218
0.02146351 -0.2571924 -0.3350667
0.02152785 -0.25887096 -0.33503464
0.021603929 -0.2608479 -0.3353822
0.021650294 -0.2620705 -0.33474377
0.021733006 -0.2642163 -0.33528867
0.021809237 -0.2661974 -0.33560863
0.021855885 -0.26742774 -0.33496615
0.021895852 -0.26848817 -0.33411008
0.021923667 -0.2692398 -0.33287102
0.02192042 -0.2692019 -0.33065954
0.021966748 -0.27042362 -0.3300216
0.021962814 -0.27036777 -0.32781804
0.021945788 -0.2699784 -0.32522818
0.021991624 -0.27118728 -0.3245969
0.021961305 -0.27045915 -0.3216367
0.021936657 -0.26987466 -0.31887737
0.021981874 -0.27106717 -0.31825468
0.021956325 -0.27045894 -0.31550732
0.021930218 -0.2698359 -0.31276911
0.02190346 -0.2691959 -0.31003758
0.021947792 -0.27036488 -0.30942714
0.021933218 -0.27003422 -0.30709088
0.02191163 -0.2695247 -0.30457142
0.021955447 -0.27068016 -0.30396807
0.021933064 -0.2701494 -0.30145988
0.021903535 -0.26943633 -0.2987704
0.021946786 -0.27057683 -0.29817483
0.021923034 -0.27000988 -0.29568568
0.021898732 -0.2694287 -0.29320398
0.021873899 -0.26883328 -0.29072976
0.021916337 -0.2699525 -0.29014534
0.02189746 -0.26950815 -0.2878688
0.021871343 -0.26887915 -0.28541413
0.021913275 -0.2699848 -0.28483674
0.021893194 -0.26950902 -0.28257868
0.021872586 -0.2690191 -0.28032595
0.021914026 -0.27011195 -0.27975526
0.021892734 -0.26960403 -0.2775138
0.02187095 -0.26908332 -0.2752791
0.02184869 -0.26854977 -0.27305102
0.0218894 -0.2696234 -0.27249038
0.021866405 -0.26907063 -0.2702723
0.02184298 -0.26850635 -0.26806226
0.021883206 -0.2695672 -0.2675083
0.021858994 -0.2689824 -0.26530698
0.021841489 -0.2685684 -0.263295
0.02188126 -0.26961714 -0.26274738
0.0218631 -0.2691861 -0.2607444
0.021837303 -0.26855925 -0.258567
0.02181102 -0.26791954 -0.2563963
0.021850083 -0.2689498 -0.2558583
0.02183042 -0.26847884 -0.25387812
0.021810269 -0.26799512 -0.2519026
0.0218489 -0.269014 -0.25137055
0.021835584 -0.26870447 -0.24958447
0.021814432 -0.26819426 -0.24762462
0.02185266 -0.2692025 -0.24709812
0.02183086 -0.26867524 -0.24514718
0.02180864 -0.26813662 -0.2432022
0.021793537 -0.26778013 -0.24144056
0.021831147 -0.268772 -0.24092261
0.021807872 -0.26820573 -0.23899218
0.021791808 -0.26782376 -0.23724402
0.021829017 -0.26880497 -0.23673165
0.02181233 -0.26840663 -0.23499005
0.021787602 -0.2678022 -0.23307982
0.021824408 -0.26877275 -0.23257302
0.02181446 -0.26854628 -0.23101775
0.021804193 -0.2683112 -0.22946686
0.02178583 -0.26786864 -0.2277482
0.021822114 -0.26882565 -0.22724846
0.021803187 -0.26836818 -0.22553761
0.021783877 -0.26790076 -0.223832
0.021819789 -0.26884782 -0.22333746
0.021807898 -0.26856977 -0.2218116
0.021795668 -0.26828316 -0.22029021
0.02183126 -0.26922166 -0.21980013
0.02181051 -0.26871604 -0.21811473
0.021797443 -0.26840743 -0.21660492
0.0217921 -0.26829636 -0.2152682
0.021827208 -0.26922205 -0.2147848
0.021813367 -0.26889285 -0.2132858
0.021799268 -0.26855668 -0.2117925
0.021834048 -0.26947385 -0.21131356
0.021827571 -0.26933295 -0.20999254
0.021820884 -0.2691865 -0.20867649
0.021855395 -0.27009657 -0.20820126
0.02183998 -0.26972592 -0.20672368
0.021824308 -0.2693483 -0.20525172
0.021816563 -0.26917377 -0.20394804
0.021850612 -0.2700717 -0.20347914
0.021834161 -0.26967353 -0.20201802
0.021817388 -0.2692669 -0.20056143
0.021851113 -0.27015632 -0.200097
0.021842228 -0.26995176 -0.19880883
0.021833137 -0.26974186 -0.19752574
0.02181529 -0.269307 -0.19608414
0.021848587 -0.27018505 -0.19562563
0.021839196 -0.26996687 -0.19435973
0.02182907 -0.2697296 -0.19308871
0.021862095 -0.27060056 -0.19263391
0.021851642 -0.2703547 -0.19136997
0.021840917 -0.2701017 -0.19010974
0.021873673 -0.27096555 -0.18965866
0.021853862 -0.2704787 -0.18824494
0.021842357 -0.27020508 -0.18699281
0.021830574 -0.26992428 -0.1857444
0.021862898 -0.27077672 -0.18529926
0.021842038 -0.27026227 -0.18390095
0.021820886 -0.26974013 -0.18250768
0.021852886 -0.27058408 -0.18206699
0.021831302 -0.27005038 -0.1806812
0.021818131 -0.26973283 -0.17945312
0.021849833 -0.27056894 -0.17901652
0.021836596 -0.27024934 -0.17779988
0.021822967 -0.26991957 -0.17658482
0.02180003 -0.26935035 -0.17521834
0.021831304 -0.27017516 -0.17478764
0.021843638 -0.27051267 -0.17403512
0.021847488 -0.27063185 -0.17314266
0.021878624 -0.27145305 -0.17271383
0.021882763 -0.27157965 -0.17183363
0.021887088 -0.2717109 -0.1709613
0.021918071 -0.27252796 -0.17053463
0.021904614 -0.27220145 -0.16937673
0.021906577 -0.27227157 -0.168479
0.021909732 -0.27237245 -0.16760576
0.021940425 -0.27318183 -0.1671831
0.021994524 -0.27459377 -0.16713755
0.022013297 -0.27509642 -0.16652197
0.02204402 -0.27590665 -0.16609886
0.022087676 -0.2770497 -0.16588071
0.015319449 -0.13217878 -0.42185217
0.015306201 -0.13142893 -0.41480988
0.015353728 -0.13268234 -0.41415536
0.015299957 -0.13061963 -0.4032672
0.015280791 -0.12970181 -0.3960932
0.015326418 -0.13090509 -0.39546484
0.015318843 -0.1303777 -0.3896637
0.015343792 -0.13091339 -0.38711497
0.015388607 -0.13209534 -0.38649777
0.015390778 -0.13189857 -0.38188663
0.015404434 -0.13207756 -0.3784346
0.015402031 -0.1317436 -0.37358442
0.01544558 -0.13289206 -0.37298468
0.015452053 -0.13285078 -0.3690758
0.015452444 -0.13261937 -0.3647092
0.01549518 -0.13374631 -0.36412072
0.015499874 -0.13365948 -0.36025527
0.015498527 -0.13338424 -0.3559501
0.015540452 -0.13448983 -0.35537276
0.015548968 -0.13453476 -0.35201424
0.015556831 -0.13456228 -0.34866378
0.015575386 -0.13493158 -0.3462452
0.015616446 -0.13601445 -0.34567976
0.015631447 -0.13627517 -0.34303913
0.015666537 -0.137171 -0.34202537
0.0157073 -0.13824607 -0.34146398
0.015738947 -0.13903476 -0.3401997
0.015782682 -0.1402034 -0.33987236
0.015823392 -0.14127699 -0.33931172
0.01585814 -0.1421641 -0.33830568
0.015905013 -0.14343053 -0.33820546
0.015952049 -0.14470139 -0.33810738
0.015992818 -0.1457765 -0.33754596
0.01604621 -0.14724438 -0.3378896
0.016096734 -0.14862214 -0.33801147
0.01613769 -0.14970222 -0.33744746
0.016185148 -0.15098391 -0.3373359
0.016232803 -0.15227114 -0.33722883
0.016273871 -0.1533541 -0.33666334
0.016321683 -0.15464534 -0.3365533
0.016376177 -0.1561423 -0.33688152
0.01642755 -0.15754211 -0.3369857
0.016468856 -0.15863147 -0.33641687
0.016520519 -0.16003908 -0.33652067
0.016568875 -0.16134463 -0.33639938
0.016610323 -0.16243759 -0.33582863
0.016662272 -0.1638524 -0.33592144
0.016717926 -0.16537985 -0.33623368
0.01675956 -0.16647777 -0.33566034
0.016812027 -0.1679068 -0.33575305
0.016868195 -0.16944775 -0.33605823
0.01691737 -0.17077476 -0.3359258
0.016959243 -0.17187907 -0.33534914
0.01701589 -0.17343277 -0.33564758
0.017069023 -0.17487878 -0.33572403
0.01711109 -0.17598805 -0.33514476
0.017164508 -0.17744192 -0.33522075
0.017221857 -0.17901419 -0.33550978
