ply
format ascii 1.0
element vertex 1353
property float x
property float y
property float z
end_header
-0.14385118 -0.2203299 -0.21205983
-0.1438495 -0.22127323 -0.21169017
-0.14387982 -0.22281127 -0.2121359
-0.14391011 -0.22435527 -0.21257924
-0.14393249 -0.22575662 -0.21281908
-0.14393081 -0.22670823 -0.2124462
-0.143961 -0.22826484 -0.21288177
-0.14399126 -0.22982898 -0.21331708
-0.14398956 -0.23078658 -0.21294186
-0.14402778 -0.23251364 -0.21357542
-0.14405793 -0.234092 -0.21400265
-0.14405623 -0.23505634 -0.21362478
-0.14408652 -0.23664667 -0.21405229
-0.14412463 -0.23839706 -0.21467444
-0.14414692 -0.23984236 -0.21489647
-0.1441452 -0.24081567 -0.21451508
-0.14418335 -0.24258466 -0.2151322
-0.14420554 -0.24404138 -0.21534757
-0.14420381 -0.24502069 -0.21496384
-0.14424187 -0.24680574 -0.21557276
-0.14426409 -0.24827646 -0.2157847
-0.14426234 -0.24926177 -0.21539861
-0.14429241 -0.25090045 -0.21580288
-0.14430667 -0.2522188 -0.21581249
-0.14433673 -0.25386795 -0.21621269
-0.14433497 -0.2548608 -0.21582367
-0.14434914 -0.25618693 -0.2158283
-0.14437135 -0.25768507 -0.21603015
-0.14436959 -0.25868165 -0.21563965
-0.1443917 -0.26018518 -0.21583723
-0.14441374 -0.26169118 -0.21603075
-0.14441198 -0.26269224 -0.21563849
-0.14441815 -0.26386458 -0.21544144
-0.1444323 -0.26521018 -0.21543841
-0.14446233 -0.26690415 -0.21582314
-0.14446056 -0.26791045 -0.21542883
-0.1444825 -0.2694363 -0.21561298
-0.14448099 -0.27045083 -0.21522437
-0.1444792 -0.27145937 -0.21482916
-0.14451702 -0.27334684 -0.21539561
-0.14453906 -0.27489057 -0.215577
-0.14453726 -0.2759051 -0.21517946
-0.14455135 -0.27727696 -0.2151662
-0.14458132 -0.27901053 -0.21553528
-0.14458746 -0.2802098 -0.21532758
-0.14458565 -0.2812296 -0.21492797
-0.1445918 -0.2824312 -0.2147195
-0.14460568 -0.2838125 -0.2146967
-0.14460388 -0.2848345 -0.21429624
-0.1446102 -0.28604463 -0.21409017
-0.14462423 -0.28743643 -0.21406865
-0.14462242 -0.2884607 -0.21366729
-0.1446363 -0.28985342 -0.21364036
-0.14464244 -0.29106635 -0.2134276
-0.14459316 -0.29096958 -0.2118964
-0.14459136 -0.29199162 -0.21149592
-0.1445657 -0.29244426 -0.2105295
-0.14450848 -0.2921351 -0.20881622
-0.1445067 -0.29314962 -0.20841867
-0.14444947 -0.2928246 -0.20671147
-0.14438435 -0.29229695 -0.20482153
-0.14438258 -0.29330027 -0.20442839
-0.14430957 -0.29256094 -0.20235924
-0.14423661 -0.2918082 -0.20029533
-0.14417152 -0.29123566 -0.19842109
-0.14416978 -0.29221946 -0.1980356
-0.1440969 -0.29143503 -0.19598587
-0.14401612 -0.29043844 -0.19375543
-0.1440144 -0.29140797 -0.19337553
-0.14395733 -0.29098544 -0.19170634
-0.1438924 -0.29035282 -0.18985742
-0.14383541 -0.28990853 -0.18819676
-0.14383373 -0.2908616 -0.1878233
-0.14376885 -0.29019976 -0.18598582
-0.14371188 -0.2897285 -0.18433574
-0.14371021 -0.29067034 -0.18396668
-0.14365338 -0.29018575 -0.18232489
-0.14359646 -0.28968847 -0.18068524
-0.1435948 -0.29061982 -0.1803203
-0.14353016 -0.28990343 -0.17850819
-0.14347316 -0.28937632 -0.17687662
-0.1434162 -0.28883806 -0.1752486
-0.14341459 -0.28975293 -0.1748901
-0.14334986 -0.2889928 -0.17309102
-0.14329328 -0.2884361 -0.17148092
-0.14329168 -0.28933975 -0.17112684
-0.14323494 -0.28876323 -0.1695194
-0.14317825 -0.288177 -0.16791669
-0.14317667 -0.28907016 -0.16756672
-0.14312 -0.28846812 -0.16597007
-0.14307085 -0.28805953 -0.16454671
-0.14302215 -0.28765398 -0.1631369
-0.1430206 -0.2885329 -0.16279249
-0.14297272 -0.28813604 -0.16140603
-0.14293918 -0.2881259 -0.16034445
-0.14293765 -0.28899738 -0.16000296
-0.14290398 -0.2889749 -0.1589424
-0.14286996 -0.28893542 -0.15787552
-0.14286844 -0.28980076 -0.15753645
-0.14280711 -0.28898272 -0.15586373
-0.14274992 -0.2882703 -0.15428773
-0.1427242 -0.28843865 -0.15341498
-0.1427227 -0.28929067 -0.15308112
-0.14270124 -0.2895733 -0.1523052
-0.14263184 -0.28847885 -0.15046981
-0.14263035 -0.28932247 -0.15013923
-0.1426116 -0.2896677 -0.14942747
-0.15486567 -0.1546005 -0.52371967
-0.15486255 -0.15636148 -0.5230296
-0.15395452 -0.15283802 -0.49796593
-0.15325083 -0.1503723 -0.4784524
-0.15324795 -0.1519991 -0.47781494
-0.15286648 -0.15131916 -0.467013
-0.15248404 -0.15056917 -0.45620665
-0.1520839 -0.14964423 -0.4449483
-0.1520812 -0.15117443 -0.44434866
-0.1518348 -0.15113734 -0.43723425
-0.1515799 -0.1510037 -0.42990717
-0.15157726 -0.1524924 -0.42932382
-0.15135978 -0.15254478 -0.42301527
-0.15110596 -0.15231475 -0.41575187
-0.15110339 -0.15376446 -0.41518378
-0.15084183 -0.15341689 -0.4077366
-0.15057136 -0.15296285 -0.40006807
-0.15030898 -0.15252079 -0.39262918
-0.15030654 -0.15390463 -0.39208692
-0.15005414 -0.15346934 -0.38493538
-0.1498279 -0.15318401 -0.37848842
-0.14982553 -0.15452816 -0.3779617
-0.1495732 -0.15398952 -0.37084737
-0.14934747 -0.15361072 -0.36444655
-0.14934516 -0.15491518 -0.3639354
-0.14908391 -0.15420324 -0.35662234
-0.14884058 -0.1535879 -0.34979302
-0.14860603 -0.15300176 -0.34320894
-0.14860383 -0.15424483 -0.34272185
-0.14839621 -0.1538181 -0.3368617
-0.14818862 -0.1533569 -0.33101502
-0.14818649 -0.1545655 -0.33054143
-0.14799687 -0.15420231 -0.32518056
-0.1478073 -0.15380767 -0.31983206
-0.14780523 -0.1549848 -0.3193708
-0.14763355 -0.15469667 -0.31450304
-0.14745304 -0.15430272 -0.3094164
-0.14728151 -0.1539574 -0.30457276
-0.14727952 -0.15509105 -0.30412856
-0.14710806 -0.15470299 -0.29930162
-0.14695445 -0.15444773 -0.29494542
-0.1469525 -0.15555443 -0.29451177
-0.14679009 -0.15517904 -0.28994197
-0.14663668 -0.15486015 -0.2856133
-0.14663477 -0.15594062 -0.28518993
-0.14649028 -0.1556677 -0.28110403
-0.14635472 -0.15545577 -0.27725512
-0.14621922 -0.15522172 -0.27341598
-0.14621738 -0.1562677 -0.2730061
-0.14609082 -0.15608712 -0.26940688
-0.14596432 -0.15588595 -0.2658169
-0.14596252 -0.15691094 -0.26541525
-0.1458361 -0.15667829 -0.2618376
-0.1457097 -0.15642463 -0.25826806
-0.14570792 -0.15742865 -0.2578746
-0.14558157 -0.15714347 -0.25431734
-0.1454641 -0.1569296 -0.25099266
-0.14534672 -0.15669668 -0.24767664
-0.145345 -0.15767072 -0.24729496
-0.14521876 -0.15731339 -0.24376537
-0.14511915 -0.15722165 -0.24091536
-0.14511746 -0.15817694 -0.24054103
-0.14500016 -0.15786627 -0.23725402
-0.14488287 -0.15753601 -0.23397443
-0.14475672 -0.15708719 -0.23047857
-0.1447551 -0.1580125 -0.230116
-0.14463788 -0.15763237 -0.22685498
-0.14452069 -0.15723273 -0.22360152
-0.14451908 -0.15813854 -0.22324659
-0.14439328 -0.15760948 -0.21978796
-0.14427623 -0.15716109 -0.21655546
-0.14427467 -0.15804668 -0.21620844
-0.14418454 -0.15788613 -0.21365593
-0.1441031 -0.15781386 -0.21132506
-0.14405717 -0.15815338 -0.20988105
-0.14405563 -0.15902098 -0.20954108
-0.14403635 -0.15967266 -0.20876089
-0.1440348 -0.16053867 -0.20842129
-0.14403328 -0.16140477 -0.2080819
-0.14401405 -0.16205111 -0.20730536
-0.14402163 -0.16302966 -0.2071914
-0.1440201 -0.16389506 -0.20685229
-0.1440275 -0.16487345 -0.20673257
-0.14404373 -0.16596632 -0.2068299
-0.14406882 -0.16717583 -0.20714314
-0.14406729 -0.16804573 -0.20680226
-0.14409232 -0.16926181 -0.20711255
-0.1441262 -0.1705983 -0.20763732
-0.14412466 -0.17147344 -0.2072944
-0.14414968 -0.17270134 -0.20759964
-0.14416595 -0.17381689 -0.20769005
-0.1441644 -0.17469579 -0.20734565
-0.14418055 -0.1758143 -0.20743152
-0.14419669 -0.17693584 -0.20751622
-0.14422166 -0.1781817 -0.2078143
-0.1442201 -0.17906582 -0.20746785
-0.14424507 -0.1803184 -0.20776325
-0.14427888 -0.181699 -0.20827049
-0.1442773 -0.18258837 -0.207922
-0.14430237 -0.18385436 -0.20821512
-0.14434496 -0.18537496 -0.20892948
-0.14434338 -0.18627034 -0.20857862
-0.1443683 -0.18754764 -0.2088643
-0.14440206 -0.18895745 -0.2093601
-0.14442697 -0.19024447 -0.20964196
-0.14442538 -0.19114736 -0.20928818
-0.14445035 -0.19244239 -0.20956941
-0.14448398 -0.19387044 -0.21005556
-0.14448237 -0.19477856 -0.2096997
-0.14450726 -0.19608432 -0.2099742
-0.14453219 -0.19739576 -0.21024884
-0.14453058 -0.1983084 -0.20989123
-0.14455543 -0.19962537 -0.21016134
-0.1445891 -0.20108242 -0.21063864
-0.14461394 -0.20240916 -0.21090491
-0.14461231 -0.20332928 -0.21054438
-0.14464587 -0.2047992 -0.21101405
-0.14467068 -0.20613796 -0.21127565
-0.14466906 -0.20706329 -0.21091306
-0.14470267 -0.20854877 -0.21137916
-0.14472754 -0.2099009 -0.21163812
-0.1447259 -0.2108315 -0.21127346
-0.14475949 -0.21233122 -0.21173398
-0.14477555 -0.21355239 -0.21178229
-0.14481783 -0.21520491 -0.21244234
-0.14481618 -0.21614379 -0.21207444
-0.14483222 -0.21737471 -0.21211894
-0.14486578 -0.21889919 -0.21256985
-0.14486411 -0.21984255 -0.2122002
-0.14488883 -0.22122853 -0.21244329
-0.14492236 -0.22276723 -0.2128886
-0.14492069 -0.22371584 -0.21251689
-0.1449542 -0.2252635 -0.21295859
-0.14498769 -0.22681716 -0.21339795
-0.14501245 -0.22822706 -0.2136342
-0.14501077 -0.22918393 -0.21325925
-0.14504422 -0.23075171 -0.2136929
-0.14508638 -0.23247753 -0.2143241
-0.14508468 -0.23344111 -0.21394652
-0.1451181 -0.23502465 -0.21437402
-0.14516026 -0.2367686 -0.21499844
-0.14515854 -0.23773894 -0.21461822
-0.14519203 -0.23933955 -0.2150413
-0.14523414 -0.24110161 -0.21565886
-0.14525881 -0.24255614 -0.21587701
-0.14525709 -0.24353546 -0.21549328
-0.14529924 -0.24531606 -0.21610571
-0.1453326 -0.24694312 -0.21651632
-0.14533086 -0.24792919 -0.21612991
-0.14536421 -0.24956527 -0.216537
-0.14538871 -0.25104293 -0.21674226
-0.14541332 -0.25252753 -0.2169487
-0.14541158 -0.2535211 -0.21655938
-0.14544491 -0.25517678 -0.21695894
-0.14546937 -0.25667083 -0.21715768
-0.14546761 -0.25766963 -0.2167663
-0.1455009 -0.25933957 -0.21716031
-0.14551675 -0.2606804 -0.21716218
-0.14551498 -0.2616837 -0.21676904
-0.1455394 -0.26319525 -0.21696019
-0.14553763 -0.26420096 -0.21656635
-0.14556214 -0.2657212 -0.2167571
-0.14556035 -0.266729 -0.21636221
-0.14557609 -0.26808286 -0.21635589
-0.14560057 -0.26961353 -0.21654248
-0.14559878 -0.27062508 -0.21614611
-0.14563182 -0.27233386 -0.21651912
-0.14563897 -0.27352825 -0.2163189
-0.14563717 -0.27454352 -0.21592107
-0.14567016 -0.27626485 -0.21628894
-0.14567731 -0.2774655 -0.21608663
-0.14571925 -0.2793796 -0.21664701
-0.14571743 -0.28040242 -0.21624623
-0.14571564 -0.28142548 -0.2158458
-0.14575729 -0.28334942 -0.21639487
-0.14575547 -0.28437594 -0.21599263
-0.1457799 -0.2859508 -0.2161619
-0.14576934 -0.28679624 -0.21556877
-0.14576752 -0.28782424 -0.21516594
-0.14579211 -0.2894116 -0.21533637
-0.1457814 -0.29025233 -0.21473947
-0.14577097 -0.29109818 -0.21414992
-0.14576915 -0.29212692 -0.2137468
-0.14573231 -0.2924015 -0.21258786
-0.14567815 -0.29229507 -0.21105753
-0.14567634 -0.2933163 -0.21065736
-0.14561348 -0.29300603 -0.2089447
-0.1455419 -0.29249424 -0.2070489
-0.14554013 -0.29350427 -0.20665312
-0.14545986 -0.29278204 -0.20457771
-0.14537962 -0.2920462 -0.20250753
-0.14529075 -0.29110414 -0.2002578
-0.14528899 -0.2920932 -0.19987024
-0.14521746 -0.29151714 -0.19799778
-0.14514603 -0.2909303 -0.19613127
-0.14514431 -0.29190737 -0.1957484
-0.1450641 -0.29110336 -0.19370292
-0.14499277 -0.29048726 -0.19184983
-0.14499107 -0.2914516 -0.19147195
-0.14491972 -0.2908161 -0.18962449
-0.1448571 -0.29036924 -0.18796511
-0.14479446 -0.289912 -0.18630984
-0.1447928 -0.29085982 -0.18593843
-0.14473021 -0.29038674 -0.18428934
-0.14466764 -0.2899032 -0.18264431
-0.14466599 -0.29084057 -0.18227701
-0.14459485 -0.29013866 -0.18045886
-0.14453234 -0.2896284 -0.17882462
-0.1445307 -0.2905545 -0.17846172
-0.14445953 -0.28982112 -0.17665298
-0.1443971 -0.28928414 -0.17502952
-0.14433447 -0.28873226 -0.17340642
-0.14433286 -0.2896419 -0.17304999
-0.14426196 -0.28887293 -0.17126124
-0.14419958 -0.28829902 -0.16965298
-0.144198 -0.28919744 -0.16930094
-0.14414437 -0.28882107 -0.16787793
-0.14408171 -0.2882131 -0.16627242
-0.14408015 -0.28910175 -0.1659242
-0.14401835 -0.28849927 -0.16434251
-0.14396493 -0.28809357 -0.16293539
-0.14391957 -0.28787965 -0.16169609
-0.14391802 -0.28875482 -0.16135316
-0.14387335 -0.2885468 -0.1601323
-0.14383748 -0.28855255 -0.1590928
-0.14383595 -0.28942105 -0.15875247
-0.14379174 -0.28920537 -0.15754677
-0.14373715 -0.28871804 -0.15613411
-0.14373563 -0.28957826 -0.15579703
-0.14367402 -0.28889665 -0.15424782
-0.14363751 -0.28884995 -0.15320744
-0.14361477 -0.28915274 -0.15244614
-0.14361326 -0.29000288 -0.152113
-0.14353707 -0.2889093 -0.15028219
-0.14352289 -0.2894214 -0.14969735
-0.1435214 -0.29026398 -0.14936718
-0.15662849 -0.15479684 -0.5201986
-0.1557189 -0.15172637 -0.4970962
-0.15571593 -0.15340826 -0.49643716
-0.15501429 -0.15126564 -0.47853887
-0.15461951 -0.15071821 -0.4682408
-0.15461668 -0.15231645 -0.46761453
-0.15420344 -0.15157267 -0.4568943
-0.1537734 -0.15066805 -0.4457831
-0.1534953 -0.15058786 -0.43842375
-0.15349263 -0.1521007 -0.43783095
-0.1532057 -0.15190315 -0.43027708
-0.15296814 -0.1519625 -0.42394638
-0.15296553 -0.15343547 -0.4233692
-0.15268977 -0.15320136 -0.41612512
-0.15240437 -0.1528638 -0.40866044
-0.15209039 -0.15229921 -0.40051472
-0.15208791 -0.15370554 -0.39996365
-0.15181243 -0.15332106 -0.39277908
-0.15153672 -0.15289234 -0.38560268
-0.1515343 -0.1542567 -0.38506806
-0.15128838 -0.15396667 -0.37863535
-0.1510138 -0.15344211 -0.3715235
-0.15101147 -0.15476683 -0.3710044
-0.15076534 -0.15437838 -0.36460036
-0.15049036 -0.15374686 -0.35751325
-0.15021572 -0.1530756 -0.35045004
-0.15021348 -0.15433964 -0.34995472
-0.14995806 -0.1537456 -0.34337485
-0.14974156 -0.15340072 -0.33774272
-0.14973938 -0.15462878 -0.3372615
-0.14949405 -0.15401551 -0.3309564
-0.14929712 -0.15373448 -0.325822
-0.14929502 -0.15492882 -0.325354
-0.14907898 -0.15445319 -0.31977972
-0.148892 -0.15417312 -0.31490946
-0.14869533 -0.15378718 -0.30981883
-0.14869331 -0.15493584 -0.30936876
-0.14850652 -0.15458436 -0.30452827
-0.14831978 -0.15420441 -0.2996989
-0.1483178 -0.15532458 -0.29925996
-0.14815053 -0.15506393 -0.29490656
-0.14797363 -0.15469626 -0.2903345
-0.1479717 -0.1557902 -0.28990582
-0.14781429 -0.15554896 -0.28580818
-0.14764729 -0.15519996 -0.28149205
-0.14749964 -0.15499456 -0.27764112
-0.14749777 -0.15605254 -0.27722654
-0.14735024 -0.15581383 -0.2733899
-0.14720275 -0.15555261 -0.26956204
-0.14720091 -0.15658812 -0.26915628
-0.14706312 -0.15638144 -0.26556775
-0.14692545 -0.1561542 -0.26198852
-0.14692365 -0.15716873 -0.26159096
-0.146786 -0.15690997 -0.25802395
-0.14665799 -0.1567209 -0.25468874
-0.1465301 -0.15651323 -0.25136334
-0.14652836 -0.15749778 -0.25097755
-0.14639089 -0.1571675 -0.24743976
-0.14626308 -0.15691026 -0.24413347
-0.14626138 -0.15787457 -0.24375561
-0.1461433 -0.15768416 -0.2406848
-0.14601554 -0.15737867 -0.23739669
-0.14601387 -0.15832424 -0.23702617
-0.14589575 -0.15808667 -0.23397003
-0.14576802 -0.15773262 -0.23069939
-0.1456403 -0.15735897 -0.22743621
-0.14563867 -0.15827604 -0.22707686
-0.14550136 -0.15777165 -0.2236027
-0.14536431 -0.15724891 -0.2201426
-0.14536273 -0.158145 -0.21979147
-0.14523526 -0.15769282 -0.21656142
-0.14514658 -0.15763925 -0.21422423
-0.14514503 -0.15851885 -0.21387957
-0.14506605 -0.1585509 -0.21177061
-0.14502601 -0.15900017 -0.21055242
-0.14499545 -0.15954855 -0.20955157
-0.14499392 -0.16041692 -0.2092113
-0.1449922 -0.16128314 -0.20886673
-0.14496209 -0.16182742 -0.20787925
-0.14496057 -0.16269355 -0.20753986
-0.1449784 -0.16378239 -0.20763806
-0.14499606 -0.16487248 -0.20773166
-0.14499453 -0.1657416 -0.2073911
-0.14500287 -0.1667265 -0.20727259
-0.14504 -0.16805339 -0.20780143
-0.14506759 -0.16927269 -0.20811348
-0.14506604 -0.17014785 -0.20777054
-0.14510313 -0.17148873 -0.2082933
-0.14513056 -0.17271842 -0.20859759
-0.14512901 -0.17359881 -0.20825261
-0.14515641 -0.1748352 -0.20855413
-0.14516461 -0.17583868 -0.20842607
-0.14516306 -0.17672208 -0.20807992
-0.14518079 -0.17784731 -0.20816302
-0.14521772 -0.17921747 -0.20867121
-0.14525473 -0.180595 -0.20917942
-0.14525315 -0.18148589 -0.20883033
-0.14528063 -0.18274993 -0.20912409
-0.14532717 -0.18426493 -0.20983747
-0.14532559 -0.18516183 -0.20948602
-0.14535302 -0.1864386 -0.20977473
-0.14538035 -0.18771847 -0.21005927
-0.14542697 -0.18925816 -0.21076602
-0.14542536 -0.19016327 -0.21041134
-0.14545268 -0.1914559 -0.21069093
-0.14547998 -0.192753 -0.2109687
-0.14547837 -0.19366261 -0.21061227
-0.14551528 -0.19509786 -0.21109793
-0.14555219 -0.1965391 -0.21158123
-0.14555058 -0.19745472 -0.21122245
-0.14557792 -0.19877253 -0.21149454
-0.14560519 -0.2000936 -0.21176292
-0.14563254 -0.20142052 -0.2120316
-0.1456309 -0.2023429 -0.21167016
-0.1456772 -0.20394585 -0.21234702
-0.14570442 -0.20528412 -0.21260858
-0.14570278 -0.20621249 -0.21224481
-0.14572999 -0.20755753 -0.21250379
-0.14576682 -0.20904672 -0.2129683
-0.14576517 -0.20998034 -0.21260248
-0.14579247 -0.2113388 -0.2128589
-0.14581966 -0.21270035 -0.21311142
-0.14585645 -0.21420905 -0.21356831
-0.1458548 -0.21515015 -0.21319954
-0.14588197 -0.21652368 -0.21344736
-0.1459092 -0.21790329 -0.21369566
-0.14590754 -0.21884887 -0.21332514
-0.14593479 -0.2202353 -0.21357085
-0.14596193 -0.22162463 -0.21381254
-0.14596024 -0.22257473 -0.21344025
-0.1460065 -0.22426638 -0.21408454
-0.14603369 -0.22567002 -0.21432342
-0.14607029 -0.22722496 -0.2147592
-0.14606859 -0.22818406 -0.21438338
-0.14609578 -0.2295996 -0.21461739
-0.14613245 -0.23117027 -0.21504964
-0.14613076 -0.23213461 -0.21467176
-0.1461769 -0.23386669 -0.21530023
-0.14621364 -0.23545454 -0.21572822
-0.14621192 -0.23642565 -0.2153477
-0.14624853 -0.23802103 -0.21577023
-0.14629465 -0.23977803 -0.21638936
-0.14634086 -0.24154389 -0.21700728
-0.14633912 -0.24252544 -0.21662265
-0.14638522 -0.24430138 -0.21723472
-0.14642188 -0.24592733 -0.21764752
-0.14642014 -0.24691564 -0.21726027
-0.1464567 -0.24854943 -0.21766806
-0.14650278 -0.25035018 -0.21827061
-0.14650102 -0.25134522 -0.21788071
-0.14652805 -0.25283238 -0.21808596
-0.146555 -0.25432286 -0.21828806
-0.14659153 -0.25598302 -0.21868579
-0.14658977 -0.25698557 -0.21829295
-0.1466262 -0.2586533 -0.21868546
-0.14666271 -0.26032844 -0.21907732
-0.14666092 -0.26133698 -0.21868211
-0.14668773 -0.26285028 -0.2188723
-0.14670506 -0.26420006 -0.21886706
-0.14670327 -0.26521233 -0.2184704
-0.14670163 -0.26622736 -0.21807688
-0.14674747 -0.2680958 -0.21864995
-0.14675544 -0.26928806 -0.21845031
-0.14675364 -0.27030486 -0.21805188
-0.14676142 -0.27149594 -0.21784747
-0.14678805 -0.27303344 -0.21802409
-0.14678624 -0.2740532 -0.2176245
-0.1468131 -0.27560192 -0.21780352
-0.14683993 -0.27715534 -0.21798095
-0.14683813 -0.27817962 -0.21757959
-0.14688405 -0.2800969 -0.21813837
-0.1469392 -0.2821954 -0.21887988
-0.146966 -0.28376746 -0.21904886
-0.14696416 -0.28480217 -0.21864341
-0.1469814 -0.28619984 -0.21861938
-0.14698948 -0.2874252 -0.21841098
-0.14698765 -0.2884622 -0.21800464
-0.1469572 -0.2889479 -0.21702863
-0.14698422 -0.29054084 -0.21719675
-0.14698239 -0.29157788 -0.2167904
-0.14693269 -0.2916807 -0.21543482
-0.14691181 -0.29234055 -0.21465269
-0.14686234 -0.29243454 -0.21330613
-0.14686053 -0.29346257 -0.21290329
-0.14678249 -0.29297796 -0.21099731
-0.14671397 -0.2926711 -0.20928355
-0.14671218 -0.29368788 -0.20888512
-0.14663412 -0.29317278 -0.20698936
-0.14654662 -0.29245472 -0.20491263
-0.14654484 -0.29345876 -0.20451921
-0.14644791 -0.29252797 -0.20226534
-0.14635101 -0.29158226 -0.20001736
-0.14628257 -0.29120442 -0.19832964
-0.14628083 -0.2921882 -0.19794415
-0.14619343 -0.29140267 -0.19589378
-0.14610606 -0.29060364 -0.19384871
-0.14610435 -0.29157394 -0.1934685
-0.14602661 -0.2909551 -0.19161694
-0.14595826 -0.2905206 -0.18995085
-0.14588049 -0.28987694 -0.18810691
-0.1458788 -0.29083002 -0.18773344
-0.14581065 -0.29037225 -0.18608132
-0.14574243 -0.28990203 -0.18443157
-0.14574076 -0.29084465 -0.1840622
-0.14567259 -0.29035878 -0.18241866
-0.14560443 -0.2898624 -0.18077917
-0.14560278 -0.2907945 -0.18041393
-0.14552513 -0.2900761 -0.17859954
-0.14545688 -0.28954968 -0.17696792
-0.14537945 -0.2888116 -0.1751657
-0.14537783 -0.28972647 -0.1748072
-0.14530978 -0.2891764 -0.1731891
-0.14524174 -0.28861618 -0.17157537
-0.14524014 -0.28952053 -0.17122099
-0.14517218 -0.2889449 -0.16961367
-0.14510421 -0.28835928 -0.1680109
-0.14510264 -0.28925318 -0.16766064
-0.14503476 -0.2886523 -0.16606443
-0.14496696 -0.28804287 -0.16447389
-0.14490877 -0.28764057 -0.16306701
-0.14490722 -0.28851953 -0.16272259
-0.14486714 -0.28851742 -0.16165867
-0.14481854 -0.28831345 -0.16043812
-0.144817 -0.28918567 -0.16009635
-0.14477794 -0.28919035 -0.15905695
-0.14472951 -0.2889719 -0.15784606
-0.14472798 -0.28983742 -0.15750691
-0.14466724 -0.28931963 -0.15607212
-0.1445924 -0.28846163 -0.15438029
-0.14456177 -0.28863117 -0.15350772
-0.14456026 -0.28948393 -0.15317358
-0.14453267 -0.28971857 -0.15235968
-0.14444257 -0.28846332 -0.15039991
-0.14444108 -0.28930703 -0.15006931
-0.14441746 -0.28962052 -0.14933336
-0.15850906 -0.15389213 -0.5204592
-0.15850596 -0.15564352 -0.5197729
-0.15752186 -0.15253945 -0.4966874
-0.15676269 -0.1504245 -0.47878113
-0.15675981 -0.1520528 -0.4781431
-0.15633279 -0.15149085 -0.46785232
-0.15588574 -0.15076333 -0.45712742
-0.1554205 -0.14987566 -0.44601133
-0.15541779 -0.15140963 -0.44541025
-0.15511702 -0.1513192 -0.43805605
-0.15480666 -0.15113296 -0.4304989
-0.15480402 -0.15262395 -0.42991465
-0.15454713 -0.15267457 -0.42358837
-0.15424885 -0.1524513 -0.41634116
-0.15424629 -0.15390329 -0.4157722
-0.15393761 -0.15355524 -0.4083128
-0.15359797 -0.15297908 -0.4001729
-0.15329997 -0.15260541 -0.39298522
-0.15329753 -0.15399079 -0.39244238
-0.1529993 -0.1535519 -0.38527104
-0.15273324 -0.15327154 -0.3788356
-0.15273087 -0.15461719 -0.3783083
-0.15243389 -0.15408252 -0.37120152
-0.15216762 -0.15370376 -0.36479467
-0.15216532 -0.15500973 -0.36428294
-0.15186784 -0.15436806 -0.3572009
-0.15157074 -0.15368667 -0.35014278
-0.15129441 -0.1531027 -0.34356
-0.1512922 -0.15434727 -0.34307235
-0.15105802 -0.1539944 -0.33744422
-0.1507926 -0.1533908 -0.33113635
-0.15079047 -0.15460014 -0.33066246
-0.15057746 -0.15431187 -0.3255317
-0.15034373 -0.15384473 -0.319955
-0.15034164 -0.1550226 -0.3194934
-0.15013939 -0.15473567 -0.3146266
-0.14992666 -0.15434247 -0.30953965
-0.1497246 -0.15399837 -0.30469707
-0.14972259 -0.15513277 -0.30425254
-0.14952059 -0.15474594 -0.29942665
-0.14933963 -0.15449184 -0.29507133
-0.14933768 -0.15559928 -0.29463738
-0.14914632 -0.1552251 -0.2900686
-0.14897604 -0.15499005 -0.28596917
-0.14897414 -0.156072 -0.2855452
-0.14879347 -0.15571685 -0.28123215
-0.14863378 -0.15550601 -0.27738395
-0.14847417 -0.15527312 -0.27354565
-0.14847232 -0.15631986 -0.27313548
-0.14831278 -0.1560532 -0.26931033
-0.14816374 -0.15585196 -0.26572025
-0.14816193 -0.15687697 -0.2653186
-0.148013 -0.15664466 -0.2617419
-0.14786409 -0.15639132 -0.25817335
-0.14786232 -0.15739533 -0.25777993
-0.14772382 -0.15720157 -0.25444707
-0.14758551 -0.15698919 -0.25112405
-0.14743677 -0.15666433 -0.24758467
-0.14743505 -0.15763837 -0.24720299
-0.1472968 -0.15737642 -0.24389909
-0.14716907 -0.15719068 -0.24082695
-0.14716738 -0.15814598 -0.24045262
-0.14702916 -0.15783578 -0.23716685
-0.14690137 -0.15760289 -0.23410937
-0.14676318 -0.15725386 -0.23083729
-0.14676154 -0.15818067 -0.23047413
-0.14662339 -0.1578023 -0.22721331
-0.14647478 -0.15730333 -0.2237376
-0.14647318 -0.15820989 -0.22338235
-0.14632489 -0.15768209 -0.21992481
-0.14618695 -0.15723495 -0.21669331
-0.14618538 -0.15812129 -0.216346
-0.14608948 -0.15806445 -0.21401045
-0.14600407 -0.1580996 -0.21190059
-0.14596084 -0.15855046 -0.21068196
-0.1459593 -0.15942106 -0.21034081
-0.14592633 -0.15996833 -0.20934051
-0.14592458 -0.16083457 -0.20899592
-0.14592306 -0.1617029 -0.20865567
-0.14589058 -0.16224612 -0.20766872
-0.14591002 -0.16333418 -0.20776714
-0.14590849 -0.16420181 -0.20742716
-0.14592777 -0.16529264 -0.20752041
-0.14593692 -0.16627711 -0.20740202
-0.14597727 -0.16760246 -0.20793132
-0.14597574 -0.16847536 -0.20758927
-0.14600573 -0.16969575 -0.20790076
-0.14604604 -0.1710351 -0.20842397
-0.1460445 -0.17191324 -0.20807986
-0.14607434 -0.17314401 -0.2083836
-0.14610414 -0.17437924 -0.20868547
-0.14610258 -0.17526188 -0.2083396
-0.14611161 -0.17626573 -0.20821136
-0.14613096 -0.17739019 -0.20829469
-0.1461711 -0.17875881 -0.20880331
-0.14616951 -0.1796467 -0.2084554
-0.14620975 -0.18102567 -0.20896289
-0.14623964 -0.18228857 -0.20925698
-0.14623806 -0.18318169 -0.20890701
-0.1462886 -0.18469849 -0.20961948
-0.14631848 -0.18597414 -0.20990852
-0.14631689 -0.18687326 -0.20955619
-0.14634663 -0.1881542 -0.20984018
-0.14639725 -0.1896957 -0.21054602
-0.14642696 -0.19098715 -0.21082595
-0.14642537 -0.19189455 -0.2104704
-0.14645508 -0.19319274 -0.21074761
-0.14649521 -0.1946264 -0.21123372
-0.1464936 -0.19553904 -0.2108761
-0.14653373 -0.19698173 -0.21135868
-0.1465635 -0.19829838 -0.2116311
-0.14656188 -0.19921626 -0.21127144
-0.14659156 -0.20053841 -0.21153927
-0.1466213 -0.2018664 -0.21180741
-0.14667161 -0.20346744 -0.21248479
-0.14666997 -0.20439354 -0.2121219
-0.1466996 -0.20573291 -0.21238294
-0.14672923 -0.2070768 -0.21264225
-0.14672759 -0.2080074 -0.2122776
-0.14676762 -0.20949805 -0.21274139
-0.14679734 -0.21085536 -0.21299814
-0.14679569 -0.2117912 -0.21263142
-0.14682528 -0.21315385 -0.2128834
-0.14686531 -0.214664 -0.21333957
-0.14689487 -0.21603635 -0.21358773
-0.14689322 -0.21697971 -0.21321808
-0.14692289 -0.21836041 -0.21346582
-0.14695255 -0.21974565 -0.21371189
-0.14695089 -0.22069351 -0.21334046
-0.14698043 -0.22208394 -0.21358162
-0.14703068 -0.22377363 -0.21422647
-0.147029 -0.22472748 -0.2138527
-0.14705862 -0.22613221 -0.21409103
-0.14709842 -0.2276886 -0.21452609
-0.14712803 -0.22910297 -0.21476044
-0.14712633 -0.23006433 -0.21438372
-0.14716622 -0.23163645 -0.21481524
-0.14721638 -0.2333666 -0.21544427
-0.14721468 -0.23433469 -0.21506493
-0.14725462 -0.23592399 -0.21549219
-0.14729446 -0.23751782 -0.21591516
-0.14729273 -0.23849192 -0.21553347
-0.14734288 -0.24025072 -0.21615168
-0.14739309 -0.2420184 -0.2167687
-0.1474432 -0.24379237 -0.21738133
-0.14744146 -0.24477768 -0.21699524
-0.14748132 -0.24640511 -0.21740732
-0.14752112 -0.24803732 -0.21781555
-0.14751938 -0.24902864 -0.2174271
-0.14756945 -0.25083122 -0.21802875
-0.1475989 -0.2523172 -0.21823436
-0.14762826 -0.2538065 -0.21843678
-0.1476265 -0.25480604 -0.21804512
-0.14766626 -0.25646767 -0.21844213
-0.14770591 -0.25813386 -0.21883509
-0.14770412 -0.25913942 -0.21844105
-0.14774384 -0.26081598 -0.21883218
-0.14777306 -0.26232812 -0.21902269
-0.14777127 -0.26333892 -0.21862662
-0.14779021 -0.2646894 -0.21862103
-0.14778858 -0.26570442 -0.2182275
-0.14783841 -0.26757094 -0.21880113
-0.14783663 -0.26858693 -0.21840301
-0.14784542 -0.2697796 -0.21820317
-0.147854 -0.2709703 -0.21799885
-0.1478522 -0.27198783 -0.21760014
-0.1478812 -0.2735264 -0.21777624
-0.14791046 -0.27507398 -0.21795557
-0.14790866 -0.276096 -0.2175551
-0.14793791 -0.27765048 -0.217732
-0.14798787 -0.27956584 -0.21829133
-0.14804785 -0.28166202 -0.21903351
-0.14804602 -0.28269452 -0.21862893
-0.1480752 -0.28426766 -0.21879736
-0.14809406 -0.28566453 -0.21877356
-0.14809223 -0.28670076 -0.21836752
-0.14810114 -0.2879265 -0.21815895
-0.14806826 -0.28841335 -0.21718259
-0.14806645 -0.2894481 -0.21677713
-0.14809589 -0.29104215 -0.2169447
-0.14804214 -0.29114693 -0.21558857
-0.14801967 -0.29180756 -0.21480618
-0.14801784 -0.29283932 -0.2144019
-0.14796436 -0.2929315 -0.21305627
-0.14787987 -0.29245 -0.21114936
-0.14787807 -0.293472 -0.21074891
-0.14780393 -0.29316264 -0.20903641
-0.14771944 -0.29265064 -0.20713975
-0.14771767 -0.2936614 -0.20674369
-0.14762291 -0.29294008 -0.2046686
-0.14751795 -0.2920132 -0.2024136
-0.147413 -0.29107133 -0.20016453
-0.14741124 -0.29206038 -0.19977698
-0.14733718 -0.29168 -0.19809052
-0.14724255 -0.2908979 -0.19603916
-0.14724083 -0.29187497 -0.1956563
-0.14714622 -0.2910727 -0.19361287
-0.14706205 -0.29045692 -0.19176042
-0.14706035 -0.29142126 -0.19138254
-0.14698637 -0.29098424 -0.18971774
-0.14690216 -0.29033765 -0.18787526
-0.1468284 -0.2898826 -0.18622234
-0.14682673 -0.29083046 -0.18585093
-0.14675288 -0.2903577 -0.18420245
-0.14667909 -0.28987455 -0.18255812
-0.14667742 -0.29081193 -0.18219082
-0.14660364 -0.29031298 -0.18055262
-0.14651956 -0.28959772 -0.17873733
-0.14651792 -0.2905238 -0.17837444
-0.14644402 -0.28999484 -0.1767441
-0.14636019 -0.28925386 -0.17494333
-0.1462865 -0.2887065 -0.17332445
-0.1462849 -0.28961614 -0.172968
-0.14621124 -0.28905338 -0.17135555
-0.14613764 -0.2884804 -0.16974747
-0.14613605 -0.28937957 -0.16939513
-0.14606248 -0.28879142 -0.16779363
-0.14598896 -0.28819323 -0.16619666
-0.14598739 -0.2890819 -0.16584842
-0.145914 -0.28846994 -0.16425918
-0.14585102 -0.2880655 -0.16285338
-0.14580767 -0.28806493 -0.161789
-0.14580612 -0.28894085 -0.16144577
-0.14575353 -0.28873506 -0.16022612
-0.14571129 -0.28874132 -0.15918627
-0.14570975 -0.28961056 -0.15884566
-0.14565733 -0.28939033 -0.15763569
-0.14559159 -0.28887492 -0.15620022
-0.14559007 -0.2897358 -0.15586288
-0.145509 -0.28887495 -0.15417247
-0.14547591 -0.2890434 -0.15330046
-0.14544609 -0.28927913 -0.15248625
-0.14544459 -0.2901298 -0.15215293
-0.14534698 -0.2888712 -0.15019484
-0.14532146 -0.2891856 -0.14945862
-0.14531997 -0.2900275 -0.14912874
-0.16625285 -0.1768243 -0.6462172
-0.16624908 -0.17896141 -0.64537984
-0.16032065 -0.15444244 -0.5186337
-0.15928656 -0.1514824 -0.49606252
-0.1592836 -0.15316157 -0.49540454
-0.15855414 -0.15142743 -0.4793582
-0.15805982 -0.15071723 -0.46832106
-0.158057 -0.1523162 -0.46769452
-0.15760745 -0.15172727 -0.45763692
-0.15712054 -0.1508935 -0.4468122
-0.15678717 -0.15076774 -0.4392444
-0.15678449 -0.15228358 -0.43865043
-0.15643919 -0.15203029 -0.43085518
-0.15615223 -0.15203656 -0.42430082
-0.15614963 -0.15351108 -0.42372304
-0.15582801 -0.15327467 -0.41646257
-0.1554854 -0.15288182 -0.40877774
-0.15513071 -0.1523773 -0.40085644
-0.15512823 -0.15378514 -0.4003048
-0.1548073 -0.1534003 -0.39311218
-0.15448703 -0.15297681 -0.3859484
-0.15448463 -0.15434267 -0.38541317
-0.15418752 -0.15399073 -0.37875333
-0.15389007 -0.15359727 -0.37209952
-0.15388773 -0.15492421 -0.37157956
-0.153579 -0.15440373 -0.364713
-0.15325917 -0.15377489 -0.35763177
-0.15296187 -0.15324238 -0.35103068
-0.15295963 -0.15450865 -0.3505345
-0.15266244 -0.15391774 -0.34395632
-0.15239947 -0.15350515 -0.33809674
-0.15239729 -0.15473472 -0.33761492
-0.15211159 -0.15412217 -0.33130655
-0.1518713 -0.15376988 -0.32594392
-0.15186918 -0.15496498 -0.3254756
-0.15162899 -0.1545655 -0.3201315
-0.15140018 -0.15421124 -0.31503165
-0.15117143 -0.15382698 -0.3099435
-0.1511694 -0.1549764 -0.30949312
-0.150952 -0.15462567 -0.30465227
-0.15074602 -0.15432662 -0.30005467
-0.15074404 -0.15544829 -0.29961514
-0.15053815 -0.1551088 -0.29503345
-0.15033232 -0.1547423 -0.2904623
-0.15033038 -0.155837 -0.29003334
-0.15014727 -0.15559693 -0.28593653
-0.14995287 -0.15524867 -0.28162014
-0.14978111 -0.1550444 -0.27776998
-0.14977923 -0.15610313 -0.27735513
-0.14960758 -0.15586554 -0.27351925
-0.14943598 -0.15560544 -0.26969212
-0.14943415 -0.15664169 -0.26928607
-0.14927386 -0.15643613 -0.26569828
-0.14912489 -0.15629894 -0.26234546
-0.14912309 -0.15731496 -0.26194733
-0.14895168 -0.1569676 -0.25815558
-0.14879155 -0.15668893 -0.25459743
-0.14864278 -0.15648164 -0.2512731
-0.14864103 -0.15746619 -0.2508873
-0.14849225 -0.15722907 -0.24757291
-0.1483435 -0.15697289 -0.24426724
-0.1483418 -0.15793794 -0.24388908
-0.14820445 -0.15774858 -0.24081884
-0.14805575 -0.15744412 -0.23753123
-0.14805408 -0.15839043 -0.23716041
-0.14792776 -0.158251 -0.23432522
-0.14776795 -0.15780073 -0.2308344
-0.14763044 -0.15752627 -0.2277906
-0.14762881 -0.15844482 -0.22743066
-0.14745784 -0.15784264 -0.22373863
-0.1473096 -0.15742317 -0.22050115
-0.147308 -0.15832074 -0.22014944
-0.14717093 -0.1579742 -0.21714139
-0.14707884 -0.15802546 -0.21502063
-0.14707728 -0.15890804 -0.21467479
-0.14698549 -0.15894371 -0.21256618
-0.14695036 -0.15950292 -0.21156764
-0.14689267 -0.15984271 -0.21013078
-0.14689113 -0.16071334 -0.20978963
-0.14687833 -0.16147532 -0.20922975
-0.14686556 -0.1622359 -0.20867065
-0.14686401 -0.16310501 -0.2083301
-0.14688508 -0.16419685 -0.20842709
-0.14690614 -0.16529176 -0.20852304
-0.14690459 -0.16616386 -0.20818129
-0.14692564 -0.16726327 -0.20827545
-0.14696935 -0.1685953 -0.20880541
-0.14700177 -0.1698182 -0.20911561
-0.14700022 -0.1706971 -0.20877121
-0.1470436 -0.17204027 -0.20928968
-0.14707585 -0.17327362 -0.20959233
-0.1470743 -0.17415777 -0.20924588
-0.14709538 -0.17528059 -0.20933287
-0.1471276 -0.17652439 -0.20963126
-0.14712603 -0.17741227 -0.20928334
-0.14715824 -0.17866284 -0.20957911
-0.14719044 -0.17991786 -0.20987307
-0.14723386 -0.18129975 -0.21037923
-0.14723228 -0.18219514 -0.21002838
-0.14726458 -0.18346363 -0.2103202
-0.14731914 -0.18498291 -0.2110313
-0.14731754 -0.1858843 -0.2106781
-0.14734982 -0.1871656 -0.21096502
-0.14739309 -0.18857528 -0.2114573
-0.1474366 -0.18999393 -0.21195221
-0.147435 -0.19090354 -0.21159577
-0.14747836 -0.1923297 -0.21208467
-0.1475216 -0.19376051 -0.21256903
-0.14751998 -0.19467612 -0.21221025
-0.14756334 -0.1961173 -0.21269335
-0.14759552 -0.19743364 -0.212966
-0.1475939 -0.19835448 -0.21260516
-0.14763722 -0.19980985 -0.21308258
-0.14766929 -0.20113681 -0.21334839
-0.14770147 -0.20246968 -0.21361455
-0.14769983 -0.20339805 -0.21325077
-0.14774299 -0.20487149 -0.21371846
-0.14778626 -0.20635232 -0.21418586
-0.1477846 -0.20728669 -0.21381974
-0.14781664 -0.20863764 -0.21407619
-0.14785989 -0.2101327 -0.21453804
-0.14785822 -0.21107231 -0.21416984
-0.14789034 -0.21243677 -0.21442379
-0.14792237 -0.21380426 -0.21467379
-0.14795446 -0.2151778 -0.21492428
-0.1479528 -0.21612415 -0.21455345
-0.14799598 -0.217647 -0.2150045
-0.14802797 -0.219031 -0.21524806
-0.14802629 -0.2199826 -0.21487518
-0.14805838 -0.22137503 -0.21511845
-0.14809033 -0.22277029 -0.21535763
-0.14808865 -0.22372639 -0.21498299
-0.14813165 -0.22527519 -0.21542071
-0.14816372 -0.22668412 -0.21565749
-0.14819564 -0.22809575 -0.21589005
-0.14819394 -0.22905935 -0.21551247
-0.14822583 -0.23047763 -0.21574223
-0.14828 -0.23220338 -0.21637243
-0.14827828 -0.23317295 -0.21599251
-0.14832148 -0.2347594 -0.216421
-0.14837563 -0.23650324 -0.21704437
-0.1483739 -0.23747958 -0.2166618
-0.14841704 -0.23908152 -0.21708378
-0.14848237 -0.24100043 -0.2179009
-0.14852539 -0.24261455 -0.21831596
-0.14852364 -0.24360135 -0.21792929
-0.14857784 -0.24538362 -0.21854044
-0.14863196 -0.24717222 -0.21914726
-0.1486302 -0.2481665 -0.21875764
-0.14868438 -0.24996753 -0.21936153
-0.14871627 -0.25145307 -0.21956713
-0.1487145 -0.25245336 -0.21917517
-0.14875746 -0.25410813 -0.21957459
-0.14880033 -0.25576764 -0.21997017
-0.14884336 -0.2574357 -0.22036651
-0.14884159 -0.258445 -0.21997102
-0.14889549 -0.26028442 -0.22055542
-0.14892735 -0.26180115 -0.22074951
-0.14892556 -0.26281643 -0.22035168
-0.14896832 -0.26450512 -0.22073464
-0.14898886 -0.26586238 -0.22072637
-0.14898705 -0.26688215 -0.22032678
-0.14900777 -0.26824704 -0.2203203
-0.1490281 -0.2696086 -0.22030549
-0.14907065 -0.27131706 -0.22067669
-0.14906885 -0.27234283 -0.22027475
-0.14908962 -0.27372065 -0.22026461
-0.14912096 -0.27526712 -0.22043648
-0.14911914 -0.27629662 -0.22003308
-0.14915076 -0.2778547 -0.2202078
-0.14919356 -0.2795947 -0.22057357
-0.14919174 -0.28062943 -0.22016811
-0.14925683 -0.28273535 -0.2209141
-0.14931035 -0.28466433 -0.22145784
-0.14936467 -0.2866143 -0.22201301
-0.14936282 -0.28766102 -0.22160286
-0.14934981 -0.28852588 -0.22100165
-0.14935954 -0.28976128 -0.22078973
-0.14935769 -0.290808 -0.22037956
-0.14932273 -0.2913086 -0.21940519
-0.14929831 -0.29197913 -0.21861176
-0.14929646 -0.29302213 -0.21820307
-0.14921665 -0.292763 -0.21647163
-0.14915913 -0.29286695 -0.2151217
-0.14909045 -0.29277572 -0.21358617
-0.14908864 -0.29380524 -0.21318275
-0.14899774 -0.29332227 -0.21127671
-0.14890678 -0.29282612 -0.20937414
-0.14890498 -0.29384366 -0.20897543
-0.14880304 -0.29314044 -0.2068952
-0.14870101 -0.2924215 -0.20481804
-0.14869924 -0.29342553 -0.2044246
-0.14858623 -0.29249492 -0.20217139
-0.14848432 -0.29174256 -0.20010874
-0.14838248 -0.29097804 -0.19805264
-0.14838076 -0.2919611 -0.19766743
-0.14828993 -0.29137027 -0.19580166
-0.1481881 -0.29057145 -0.19375724
-0.14818639 -0.29154176 -0.19337703
-0.14810683 -0.29112032 -0.19170855
-0.14801618 -0.2904888 -0.18986045
-0.14792563 -0.28984725 -0.18801883
-0.14792395 -0.29080036 -0.18764536
-0.14784446 -0.29034084 -0.18599196
-0.147765 -0.28987083 -0.18434273
-0.14776333 -0.29081345 -0.18397336
-0.14769489 -0.29052937 -0.18251011
-0.1476045 -0.28983152 -0.18069132
-0.14760284 -0.29076362 -0.18032607
-0.1475233 -0.29024884 -0.17869078
-0.14743297 -0.2895224 -0.17688397
-0.14735363 -0.288989 -0.17525989
-0.14735201 -0.28990462 -0.1749011
-0.14726162 -0.28914624 -0.17310335
-0.14718235 -0.28858623 -0.17149013
-0.14718075 -0.28949058 -0.17113575
-0.14710152 -0.28891513 -0.16952893
-0.14702232 -0.28832966 -0.16792667
-0.14702074 -0.28922355 -0.1675764
-0.14694162 -0.28862286 -0.16598065
-0.14687368 -0.2882281 -0.16456842
-0.14680578 -0.28782436 -0.16315976
-0.14680423 -0.28870407 -0.16281505
-0.14674672 -0.28848997 -0.16157737
-0.14669007 -0.2882846 -0.16035596
-0.14668852 -0.28915682 -0.16001418
-0.14664309 -0.28916162 -0.15897508
-0.146596 -0.2891274 -0.15791182
-0.14659446 -0.28999358 -0.15757242
-0.14651604 -0.28932407 -0.15601707
-0.14643767 -0.2886447 -0.15446621
-0.14639366 -0.2886456 -0.15346082
-0.14639215 -0.28949848 -0.15312661
-0.14636026 -0.2897362 -0.15231505
-0.14626361 -0.2886535 -0.15048878
-0.14626211 -0.2894979 -0.1501579
-0.14624079 -0.28993616 -0.1495166
-0.1668223 -0.17078474 -0.6114748
-0.16210568 -0.15316091 -0.5170888
-0.16210261 -0.15490238 -0.51640636
-0.1610178 -0.15199864 -0.49429083
-0.16028254 -0.15048344 -0.47914067
-0.16027965 -0.15211333 -0.478502
-0.15976831 -0.15146524 -0.4678223
-0.15931748 -0.15102889 -0.4583585
-0.15880014 -0.15023072 -0.44760385
-0.15879743 -0.15177011 -0.44700065
-0.15843694 -0.15161787 -0.43936375
-0.15805481 -0.1513175 -0.43131754
-0.15805218 -0.15281151 -0.43073213
-0.15773296 -0.15274978 -0.423944
-0.15740162 -0.15258813 -0.41693163
-0.15739904 -0.15404241 -0.41636178
-0.15701947 -0.15357359 -0.4084297
-0.15664063 -0.15306178 -0.40052894
-0.15632077 -0.15281112 -0.39379296
-0.1563183 -0.15419948 -0.39324895
-0.15596387 -0.15370488 -0.38586265
-0.15564544 -0.15336119 -0.37919044
-0.15564306 -0.15470837 -0.37866256
-0.1553247 -0.15430616 -0.37201285
-0.1549945 -0.15379834 -0.36514807
-0.1549922 -0.15510581 -0.36463574
-0.15466179 -0.15453558 -0.3577886
-0.1543436 -0.15399514 -0.3511916
-0.1540255 -0.15341575 -0.3446099
-0.15402329 -0.15466405 -0.34412074
-0.15372969 -0.15417211 -0.33803132
-0.153436 -0.15364327 -0.33195305
-0.15343387 -0.15485562 -0.331478
-0.15316467 -0.15442303 -0.3258879
-0.15290748 -0.15403181 -0.32053927
-0.15290539 -0.15521194 -0.32007685
-0.15266061 -0.15485169 -0.31498188
-0.15241578 -0.15446092 -0.309897
-0.15218307 -0.15411828 -0.30505362
-0.15218106 -0.15525419 -0.30460852
-0.15196058 -0.15494889 -0.3000125
-0.15174021 -0.15461709 -0.29542848
-0.15173826 -0.15572603 -0.29499394
-0.15151796 -0.15535378 -0.2904258
-0.15132196 -0.15512063 -0.28632692
-0.15132004 -0.15620409 -0.28590235
-0.15112405 -0.15593456 -0.2818164
-0.15092811 -0.15564106 -0.27773994
-0.1507444 -0.15541005 -0.27390215
-0.15074253 -0.15645827 -0.2734914
-0.15055887 -0.1561935 -0.26966673
-0.15038735 -0.15599452 -0.26607814
-0.15038554 -0.15702102 -0.2656759
-0.15021415 -0.15679099 -0.26210073
-0.15004261 -0.15653858 -0.25853023
-0.15004084 -0.15754409 -0.2581362
-0.14986953 -0.1572616 -0.2545815
-0.14971022 -0.15704979 -0.2512579
-0.14956306 -0.15691191 -0.24816684
-0.14956133 -0.15788819 -0.24778429
-0.14939013 -0.15753438 -0.24425717
-0.14924309 -0.15735039 -0.24118523
-0.1492414 -0.1583072 -0.2408103
-0.14909424 -0.15809496 -0.23774603
-0.14893512 -0.15776743 -0.23446701
-0.1487879 -0.15751731 -0.23141466
-0.14878626 -0.15844636 -0.23105063
-0.14862736 -0.15807195 -0.22779298
-0.14845595 -0.15757345 -0.2243127
-0.14845434 -0.15848224 -0.22395658
-0.14830777 -0.15816209 -0.22094266
-0.14816132 -0.15782492 -0.21793775
-0.14815976 -0.15871575 -0.21758868
-0.1480615 -0.15876882 -0.21547373
-0.1479872 -0.15901886 -0.21380015
-0.1479497 -0.15958309 -0.21280003
-0.14794815 -0.16046117 -0.21245594
-0.14789829 -0.16090865 -0.21123408
-0.14788492 -0.16167755 -0.21067643
-0.14788337 -0.16255191 -0.21033381
-0.14788188 -0.16342658 -0.20999178
-0.14790452 -0.16452274 -0.2100867
-0.14790297 -0.16539863 -0.2097435
-0.14792562 -0.16649935 -0.2098367
-0.14794824 -0.16760303 -0.20992874
-0.14801933 -0.16916624 -0.21089165
-0.14801776 -0.17004964 -0.2105455
-0.14805242 -0.17127892 -0.21084984
-0.14809915 -0.1726287 -0.21136872
-0.14809759 -0.17351733 -0.21102051
-0.14813223 -0.17475852 -0.21131998
-0.14816685 -0.1760042 -0.21161762
-0.14816529 -0.17689735 -0.21126765
-0.14821196 -0.17826945 -0.21177752
-0.1482467 -0.17952846 -0.21207286
-0.14826922 -0.18066931 -0.21214952
-0.14826764 -0.18156917 -0.21179691
-0.14831428 -0.18295997 -0.21229933
-0.14836091 -0.1843568 -0.21279944
-0.1483593 -0.18526265 -0.21244448
-0.14841798 -0.18679346 -0.21315397
-0.14846458 -0.18820609 -0.21364807
-0.14846297 -0.1891187 -0.21329047
-0.14850956 -0.19054034 -0.21378104
-0.1485563 -0.19196954 -0.21427187
-0.14859083 -0.1932744 -0.21454628
-0.1485892 -0.19419526 -0.21418543
-0.14863561 -0.19563565 -0.21466565
-0.14868215 -0.1970835 -0.21514599
-0.14868051 -0.19801036 -0.2147828
-0.14872706 -0.19946721 -0.21525957
-0.14876166 -0.2007982 -0.21552652
-0.14876 -0.20173031 -0.21516126
-0.14880651 -0.20320132 -0.21563236
-0.14884098 -0.20454288 -0.21589231
-0.1488873 -0.20602363 -0.2163567
-0.14888565 -0.20696396 -0.21598822
-0.14892036 -0.20832062 -0.21624821
-0.14896668 -0.20981558 -0.21670699
-0.14896502 -0.21076116 -0.21633646
-0.14899956 -0.21212831 -0.21658944
-0.14903398 -0.21349835 -0.21683823
-0.1490323 -0.21444844 -0.21646594
-0.14906682 -0.21582691 -0.21671456
-0.14910121 -0.21720827 -0.21695906
-0.14914747 -0.21873607 -0.21740487
-0.14914578 -0.21969366 -0.21702963
-0.1491803 -0.22108874 -0.21727188
-0.1492148 -0.22248834 -0.21751241
-0.1492131 -0.22345045 -0.21713541
-0.14925931 -0.22500063 -0.21757232
-0.14929366 -0.22641042 -0.21780561
-0.14929195 -0.22737776 -0.21742657
-0.14933826 -0.228944 -0.21786042
-0.1493726 -0.2303657 -0.21808892
-0.14940703 -0.23179367 -0.218318
-0.1494053 -0.2327685 -0.21793601
-0.14945145 -0.23435222 -0.21835959
-0.14949772 -0.23594373 -0.21878317
-0.14949599 -0.23692457 -0.21839884
-0.14954224 -0.23852505 -0.21881892
-0.1495885 -0.24013153 -0.21923664
-0.14958675 -0.24111836 -0.21884996
-0.149645 -0.24289106 -0.21946447
-0.14969131 -0.24451458 -0.21987769
-0.14974943 -0.24630037 -0.22048518
-0.14974765 -0.24729769 -0.2200944
-0.14980577 -0.24909481 -0.22069761
-0.14986397 -0.25090066 -0.22129945
-0.14986219 -0.25190547 -0.22090572
-0.14990836 -0.25356007 -0.22130491
-0.14995453 -0.2552207 -0.2217018
-0.15000069 -0.2568874 -0.22209637
-0.1499989 -0.25790122 -0.22169912
-0.15005703 -0.2597423 -0.22228721
-0.15011501 -0.2615894 -0.22287057
-0.15011321 -0.26261067 -0.22247037
-0.15015946 -0.26430446 -0.22285686
-0.15020542 -0.26600057 -0.22323678
-0.1502036 -0.26702785 -0.22283424
-0.15023771 -0.26856482 -0.22301744
-0.15029573 -0.27044764 -0.22358878
-0.15031785 -0.27182359 -0.22357307
-0.15031601 -0.27285832 -0.22316761
-0.1503857 -0.27492625 -0.22392178
-0.15041973 -0.27648595 -0.22409531
-0.15041788 -0.2775274 -0.22368722
-0.15046386 -0.2792691 -0.22405146
-0.15048595 -0.28066528 -0.22402786
-0.1504841 -0.28171125 -0.223618
-0.15052967 -0.28346086 -0.2239709
-0.1505756 -0.2852216 -0.22432715
-0.15061001 -0.28681654 -0.22449684
-0.15060815 -0.28787073 -0.22408375
-0.15065369 -0.2896398 -0.22442809
-0.15058057 -0.28961727 -0.22287636
-0.15057872 -0.29066998 -0.22246386
-0.15056495 -0.29154074 -0.22186185
-0.1505276 -0.2920482 -0.2208856
-0.15052575 -0.29309794 -0.22047426
-0.15046418 -0.2932233 -0.21911617
-0.15037875 -0.29296988 -0.21738279
-0.15030512 -0.29289058 -0.21584049
-0.15030329 -0.2939268 -0.21543445
-0.15022983 -0.29383597 -0.21389942
-0.15012056 -0.2931698 -0.21180376
-0.15011875 -0.2941948 -0.21140213
-0.1499976 -0.2933192 -0.20912799
-0.1499003 -0.29280925 -0.20723268
-0.14989851 -0.29382074 -0.20683631
-0.14977732 -0.29290688 -0.20457402
-0.14965633 -0.29198128 -0.20232075
-0.14955905 -0.2914252 -0.20044191
-0.14955729 -0.29241574 -0.20005377
-0.14944817 -0.29164737 -0.19799775
-0.14933906 -0.29086554 -0.19594705
-0.14933735 -0.29184258 -0.19556418
-0.14922827 -0.29104054 -0.1935214
-0.14914307 -0.29062176 -0.19185214
-0.14914137 -0.29158685 -0.19147398
-0.14904429 -0.29095247 -0.18962735
-0.14895914 -0.29050672 -0.18796866
-0.14886221 -0.2898512 -0.186133
-0.14886054 -0.29079905 -0.18576157
-0.14877546 -0.2903265 -0.18411362
-0.1486904 -0.28984353 -0.1824698
-0.14868873 -0.2907809 -0.18210249
-0.14860371 -0.29028213 -0.1804648
-0.14851867 -0.289773 -0.17883126
-0.14851703 -0.29069984 -0.1784681
-0.14842014 -0.28996757 -0.17666014
-0.14833519 -0.2894316 -0.17503731
-0.14825024 -0.28888524 -0.1734187
-0.14824864 -0.28979564 -0.17306197
-0.14815184 -0.2890235 -0.17127037
-0.14806698 -0.28845066 -0.16966276
-0.14806539 -0.28934982 -0.16931042
-0.1479806 -0.28876218 -0.1677097
-0.14789586 -0.28816432 -0.16611333
-0.1478943 -0.289053 -0.1657651
-0.14782153 -0.28865552 -0.16435355
-0.14774889 -0.28825086 -0.16294697
-0.14769906 -0.28825206 -0.16188332
-0.14769751 -0.28912872 -0.16153981
-0.14763692 -0.28892368 -0.16032007
-0.14758684 -0.2889037 -0.15925844
-0.1475853 -0.2897736 -0.15891756
-0.14752635 -0.28958037 -0.15772861
-0.14744052 -0.28887975 -0.15614554
-0.147439 -0.2897407 -0.15580817
-0.1473575 -0.28910428 -0.15429428
-0.14731903 -0.28926635 -0.15341648
-0.1472736 -0.2892921 -0.15243807
-0.1472721 -0.2901429 -0.15210469
-0.14716846 -0.28905547 -0.15027875
-0.14713874 -0.2893625 -0.14953615
-0.14713727 -0.29020506 -0.14920598
-0.16670191 -0.16093406 -0.568838
-0.16669856 -0.1628326 -0.5680941
-0.16390736 -0.15374602 -0.51545256
-0.16280708 -0.15109655 -0.4943687
-0.16280413 -0.15277097 -0.4937126
-0.16205764 -0.15138601 -0.4792614
-0.16151582 -0.15076864 -0.46863407
-0.161513 -0.15236905 -0.46800694
-0.16102822 -0.15190232 -0.4584679
-0.16049922 -0.15118727 -0.448132
-0.16010535 -0.15100634 -0.44031116
-0.16010267 -0.15252596 -0.4397157
-0.15967077 -0.15210475 -0.43121904
-0.15934101 -0.15210132 -0.42461804
-0.1593384 -0.15357727 -0.4240397
-0.15894777 -0.15323092 -0.41634285
-0.15858108 -0.15295315 -0.40910053
-0.15817754 -0.15245563 -0.40119907
-0.15817505 -0.15386496 -0.40064684
-0.15782261 -0.15354913 -0.39370313
-0.15744479 -0.153066 -0.38631138
-0.15744238 -0.15443341 -0.38577557
-0.15710296 -0.15408067 -0.37910628
-0.1567633 -0.15368724 -0.37244615
-0.15676096 -0.15501568 -0.37192562
-0.15640908 -0.15449882 -0.36506534
-0.15606967 -0.15400766 -0.35844532
-0.1557306 -0.15347897 -0.35184547
-0.15572836 -0.15474822 -0.3513481
-0.15537661 -0.15409061 -0.34454027
-0.15507668 -0.15368086 -0.33868155
-0.1550745 -0.15491268 -0.33819884
-0.15474859 -0.154303 -0.33189133
-0.1544616 -0.15387909 -0.32629666
-0.15445949 -0.15507568 -0.32582778
-0.1541855 -0.15467823 -0.32048458
-0.15392454 -0.15432595 -0.3153855
-0.15366365 -0.1539437 -0.3102982
-0.15366161 -0.15509461 -0.3098472
-0.15341362 -0.1547458 -0.30500695
-0.15316586 -0.15436955 -0.30018088
-0.15316388 -0.15549196 -0.29974106
-0.1529419 -0.1552343 -0.29538894
-0.15272006 -0.15495168 -0.29104823
-0.15271813 -0.15604861 -0.2906184
-0.15249635 -0.15572779 -0.28629267
-0.15228741 -0.15546472 -0.28220338
-0.15207866 -0.1551786 -0.278126
-0.15207678 -0.15623884 -0.27771056
-0.15186808 -0.15591674 -0.27364725
-0.15167235 -0.15565777 -0.26982093
-0.15167052 -0.15669477 -0.26941457
-0.15148778 -0.15649073 -0.26582858
-0.15131791 -0.1563546 -0.26247638
-0.1513161 -0.15737137 -0.262078
-0.1511206 -0.15702511 -0.25828695
-0.15095071 -0.15683813 -0.25495285
-0.15078111 -0.15663318 -0.2516301
-0.15077937 -0.15761922 -0.2512437
-0.15060972 -0.15738444 -0.24793094
-0.15043999 -0.15712932 -0.24462377
-0.15043828 -0.15809587 -0.24424504
-0.15028156 -0.15790807 -0.24117453
-0.15012471 -0.15770099 -0.23810807
-0.15012303 -0.15864953 -0.23773639
