ply
format ascii 1.0
element vertex 1337
property float x
property float y
property float z
end_header
-0.18376689 -0.28355297 -0.93356776
-0.18194593 -0.28240243 -0.92098266
-0.17633916 -0.27416548 -0.88713914
-0.17641684 -0.27641892 -0.88537246
-0.14814174 -0.22523068 -0.72478235
-0.13569038 -0.20333186 -0.65339243
-0.1357483 -0.20501158 -0.6520755
-0.1291521 -0.19388741 -0.6137579
-0.12449579 -0.18634722 -0.5863826
-0.12454821 -0.18786766 -0.5851906
-0.12059656 -0.1815264 -0.5618978
-0.11872224 -0.17918643 -0.5501518
-0.11758291 -0.17825857 -0.5424951
-0.11763189 -0.17967936 -0.5413812
-0.11677394 -0.17927222 -0.53531075
-0.11573936 -0.17848317 -0.528302
-0.11578737 -0.17987618 -0.5272099
-0.114933394 -0.17941602 -0.5212249
-0.11416974 -0.17911923 -0.5157531
-0.114216946 -0.18048833 -0.51467973
-0.113451526 -0.1801564 -0.5092314
-0.112777166 -0.17999522 -0.504294
-0.11201211 -0.1796232 -0.49889013
-0.112058185 -0.18095964 -0.49784237
-0.111290805 -0.18055129 -0.49245897
-0.110612966 -0.1803152 -0.48757344
-0.11065831 -0.18163027 -0.48654243
-0.10989012 -0.18116903 -0.4812082
-0.10921066 -0.1808818 -0.47636402
-0.108441494 -0.18037772 -0.47106692
-0.108485706 -0.18166016 -0.4700615
-0.1077602 -0.18122247 -0.46502587
-0.10707924 -0.18086526 -0.46024346
-0.10712275 -0.18212698 -0.4592543
-0.106485486 -0.18184125 -0.45472783
-0.10580292 -0.18143465 -0.44998473
-0.10584575 -0.1826769 -0.44901082
-0.10520754 -0.18234512 -0.44452545
-0.104523286 -0.18188897 -0.43982133
-0.10392922 -0.18162513 -0.43559918
-0.10397108 -0.18283917 -0.43464738
-0.10333061 -0.18244152 -0.43021375
-0.102689505 -0.18202507 -0.42579487
-0.10273072 -0.18322028 -0.42485785
-0.10217926 -0.18299304 -0.42091987
-0.10158215 -0.18264078 -0.41676715
-0.10162277 -0.18381904 -0.4158434
-0.10102477 -0.1834404 -0.41171136
-0.10047181 -0.18315606 -0.40782174
-0.09991827 -0.18285538 -0.40394488
-0.099958025 -0.18400854 -0.40304083
-0.09935795 -0.18356971 -0.398956
-0.09880299 -0.18322763 -0.39511165
-0.09884215 -0.18436386 -0.39422086
-0.09833187 -0.18411225 -0.39062017
-0.09777577 -0.18373066 -0.38680848
-0.097814396 -0.18485118 -0.38593
-0.09730279 -0.18456131 -0.3823593
-0.09674506 -0.18413891 -0.37857783
-0.09618702 -0.18370089 -0.3748105
-0.09622482 -0.18479757 -0.3739507
-0.09571133 -0.1844537 -0.3704222
-0.09519789 -0.18409617 -0.3669082
-0.09523518 -0.18517782 -0.3660602
-0.09467468 -0.18467511 -0.36234173
-0.094205365 -0.18440041 -0.35907546
-0.09424214 -0.18546699 -0.35823926
-0.0937263 -0.1850485 -0.3547711
-0.09321 -0.184615 -0.35131487
-0.09273923 -0.18429144 -0.34808868
-0.09277523 -0.18533605 -0.3472697
-0.09230351 -0.18499106 -0.34405854
-0.09178567 -0.18450679 -0.3406438
-0.09182119 -0.18553698 -0.33983612
-0.09134849 -0.18515758 -0.33665374
-0.09087506 -0.1847636 -0.3334809
-0.0909101 -0.18577997 -0.33268407
-0.090436205 -0.185366 -0.32952863
-0.08996185 -0.18493825 -0.32638407
-0.08953302 -0.18462713 -0.32346243
-0.08956737 -0.18562344 -0.3226813
-0.08909184 -0.18516178 -0.3195633
-0.088615835 -0.18468633 -0.3164561
-0.088649705 -0.18566884 -0.31568584
-0.088172995 -0.18517268 -0.31259492
-0.08774193 -0.18479688 -0.30972388
-0.08777534 -0.1857662 -0.30896395
-0.087343946 -0.18537249 -0.30610907
-0.086911805 -0.18496531 -0.30326265
-0.08647924 -0.18454559 -0.30042613
-0.08651201 -0.18549609 -0.29968095
-0.08603285 -0.1849206 -0.29665443
-0.08564578 -0.18460833 -0.29405004
-0.085678115 -0.18554626 -0.2933147
-0.085198104 -0.18493846 -0.29031563
-0.08481004 -0.18459678 -0.28773445
-0.084841944 -0.18552218 -0.28700894
-0.0844072 -0.18502279 -0.28423914
-0.08401814 -0.18465225 -0.28168067
-0.083629 -0.18427134 -0.2791323
-0.0836603 -0.18517916 -0.2784206
-0.08322405 -0.18463707 -0.27568415
-0.082834184 -0.18422814 -0.2731596
-0.082865074 -0.18512407 -0.2724572
-0.082474336 -0.18469733 -0.26994473
-0.08208322 -0.18425931 -0.26744115
-0.08211371 -0.18514395 -0.2667476
-0.08172227 -0.18468979 -0.26425835
-0.08133016 -0.18422352 -0.26177686
-0.080984384 -0.18389529 -0.25950184
-0.08101432 -0.1847636 -0.2588211
-0.08062151 -0.18427049 -0.25636226
-0.0802283 -0.18376608 -0.2539122
-0.08025784 -0.1846231 -0.25324032
-0.07995793 -0.18440743 -0.25119495
-0.07956356 -0.18387529 -0.24876508
-0.07959276 -0.18472227 -0.24810106
-0.079292044 -0.1844834 -0.24607389
-0.07894389 -0.18408 -0.2438594
-0.07854843 -0.1835109 -0.24145988
-0.07857711 -0.18434283 -0.24080765
-0.07822805 -0.18391368 -0.23861328
-0.07787887 -0.18347524 -0.23642768
-0.077907205 -0.18429714 -0.23578332
-0.077557296 -0.18384291 -0.23360863
-0.07720704 -0.18337867 -0.23144184
-0.076903746 -0.18306512 -0.22947317
-0.07693158 -0.18387258 -0.22884014
-0.076627836 -0.18354584 -0.22688182
-0.07627642 -0.18304771 -0.22474158
-0.07630394 -0.18384579 -0.22411591
-0.07599941 -0.18349646 -0.22217529
-0.07569459 -0.18313839 -0.22024156
-0.0757218 -0.18392767 -0.21962278
-0.07541653 -0.1835564 -0.21769941
-0.07511095 -0.18317637 -0.2157829
-0.07480528 -0.1827883 -0.21387412
-0.07483204 -0.1835644 -0.21326567
-0.07447813 -0.18299413 -0.211182
-0.074171476 -0.18258272 -0.20929009
-0.0741979 -0.1833494 -0.20868902
-0.073891014 -0.1829256 -0.20680827
-0.07363104 -0.18266225 -0.20511517
-0.07365719 -0.18342078 -0.20452048
-0.07330186 -0.18280362 -0.20247501
-0.07299391 -0.1823491 -0.2006184
-0.0727332 -0.18205832 -0.19894828
-0.0727589 -0.18280369 -0.19836392
-0.07244999 -0.18232706 -0.19652319
-0.07218861 -0.18201685 -0.19486833
-0.07221403 -0.18275407 -0.19429035
-0.071904615 -0.18225694 -0.1924672
-0.07164233 -0.18192644 -0.19082674
-0.07166747 -0.1826555 -0.19025517
-0.071405254 -0.18231538 -0.18862526
-0.07114233 -0.18196607 -0.18699954
-0.07087959 -0.18161091 -0.18538143
-0.070904344 -0.18232867 -0.18481873
-0.070641 -0.18196139 -0.18320864
-0.07037739 -0.18158656 -0.18160444
-0.07040187 -0.18229678 -0.18104763
-0.07013811 -0.18191159 -0.17945315
-0.069873855 -0.18151793 -0.17786369
-0.06989808 -0.18222062 -0.17731278
-0.06963342 -0.18181567 -0.17573217
-0.069368504 -0.18140317 -0.17415746
-0.069151275 -0.18116806 -0.17275842
-0.06917514 -0.1818601 -0.17221586
-0.068909585 -0.1814294 -0.1706554
-0.06864403 -0.18099208 -0.1691017
-0.06866763 -0.1816766 -0.16856503
-0.0684495 -0.18141516 -0.16718668
-0.068183295 -0.18095966 -0.16564724
-0.06820666 -0.18163727 -0.165116
-0.067939855 -0.18116961 -0.16358462
-0.06772117 -0.18088593 -0.16222532
-0.06745413 -0.18040483 -0.1607061
-0.06747712 -0.18107176 -0.16018322
-0.06725763 -0.18077084 -0.15883593
-0.066989966 -0.18027164 -0.15733102
-0.06701272 -0.18093167 -0.15681356
-0.0667927 -0.18061446 -0.15547907
-0.06657269 -0.18029197 -0.15415035
-0.06659523 -0.18094572 -0.15363781
-0.066326596 -0.18041779 -0.15215562
-0.06610606 -0.18007909 -0.15083976
-0.06588501 -0.17973292 -0.14952786
-0.065907195 -0.18037666 -0.14902318
-0.0656861 -0.18002221 -0.14771956
-0.06544046 -0.17956138 -0.14634126
-0.065462425 -0.18019854 -0.14584175
-0.06521644 -0.17972739 -0.14447156
-0.065043 -0.17955124 -0.14334251
-0.065064766 -0.18018244 -0.14284767
-0.064818196 -0.17969492 -0.14149024
-0.06457122 -0.17919978 -0.14013769
-0.06432434 -0.17869921 -0.13879164
-0.06434575 -0.17932005 -0.1383049
-0.06412261 -0.17891061 -0.13704331
-0.06389904 -0.17849402 -0.13578597
-0.06392022 -0.17910857 -0.13530415
-0.06367206 -0.1785794 -0.13397807
-0.063399754 -0.1779417 -0.13258281
-0.06342069 -0.17854905 -0.13210666
-0.06319619 -0.1781062 -0.13086963
-0.06294737 -0.17755368 -0.12956305
-0.06267378 -0.1768888 -0.12818645
-0.06269436 -0.1774858 -0.12771842
-0.062420625 -0.17681068 -0.12635139
-0.062170714 -0.17623232 -0.12506352
-0.062191047 -0.17682211 -0.12460114
-0.061940733 -0.1762333 -0.1233213
-0.06164181 -0.17542633 -0.121901296
-0.061439946 -0.17503724 -0.12077945
-0.06145992 -0.17561665 -0.120325185
-0.061184987 -0.17489906 -0.11899354
-0.06095823 -0.17438743 -0.117811285
-0.060977966 -0.17495994 -0.11736243
-0.06070185 -0.17422163 -0.11604335
-0.06047481 -0.17369494 -0.11487473
-0.060494307 -0.17426057 -0.11443128
-0.060266934 -0.17372441 -0.11327002
-0.060039025 -0.17318058 -0.112112746
-0.059786495 -0.17252105 -0.11089001
-0.059805665 -0.17307693 -0.1104542
-0.059577513 -0.17251848 -0.109310366
-0.05934882 -0.17195228 -0.10817051
-0.05936777 -0.17250188 -0.10773963
-0.059139412 -0.17192926 -0.10660904
-0.058910158 -0.17134729 -0.10548145
-0.05892889 -0.17189062 -0.10505549
-0.05872445 -0.17141409 -0.10400557
-0.058519814 -0.1709319 -0.102960065
-0.058340125 -0.1705595 -0.10198874
-0.05835858 -0.17109469 -0.10156915
-0.05817798 -0.1707118 -0.10060193
-0.05802238 -0.1704402 -0.09970761
-0.058040664 -0.1709707 -0.09929172
-0.057909403 -0.17080659 -0.09846933
-0.05780321 -0.17075606 -0.09771811
-0.05782138 -0.17128308 -0.09730493
-0.057665855 -0.17099792 -0.096425414
-0.05755938 -0.17093892 -0.09568085
-0.057452466 -0.1708753 -0.094937876
-0.057470452 -0.17139699 -0.09452888
-0.057364013 -0.17133166 -0.09379131
-0.057306755 -0.17149623 -0.093185775
-0.05732466 -0.17201541 -0.09277874
-0.057218336 -0.17194459 -0.09204775
-0.057160884 -0.17210378 -0.09144639
-0.0571787 -0.17262046 -0.09104133
-0.05712148 -0.17277846 -0.090443075
-0.057039544 -0.17281634 -0.08978303
-0.056982193 -0.17297024 -0.089187965
-0.056999896 -0.17348379 -0.08878535
-0.05691739 -0.17351404 -0.088129066
-0.05685985 -0.17366286 -0.087537915
-0.05687748 -0.17417422 -0.087137006
-0.05679514 -0.17420031 -0.08648633
-0.056737456 -0.17434421 -0.08589916
-0.05675501 -0.17485338 -0.08549998
-0.05667251 -0.17487377 -0.08485407
-0.056614693 -0.17501286 -0.084270924
-0.056532525 -0.17503093 -0.08362988
-0.05654996 -0.17553666 -0.08323339
-0.056466892 -0.17554721 -0.082593426
-0.056408953 -0.17567977 -0.08201623
-0.056426313 -0.17618331 -0.08162146
-0.056317903 -0.1760633 -0.08092607
-0.05623521 -0.17606847 -0.08029459
-0.056252472 -0.1765692 -0.07990202
-0.05611937 -0.17631978 -0.0791549
-0.056086253 -0.17656709 -0.07864569
-0.055953477 -0.17631415 -0.07790474
-0.05597059 -0.17681053 -0.07751559
-0.05593951 -0.1770645 -0.077014856
-0.055831347 -0.17692891 -0.076337546
-0.055848386 -0.17742313 -0.07595008
-0.055742923 -0.17729747 -0.07528298
-0.055562567 -0.17678946 -0.074448325
-0.055579472 -0.17727973 -0.074063964
-0.055498593 -0.17727214 -0.07345951
-0.055322118 -0.17677486 -0.072643004
-0.055245914 -0.1767862 -0.07205417
-0.055262648 -0.17727171 -0.071673535
-0.055191822 -0.17730781 -0.07109954
-0.05528585 -0.17818983 -0.07088968
-0.055302583 -0.17867522 -0.07050914
-0.055236068 -0.17873083 -0.06994746
-0.05512419 -0.17855008 -0.06928926
-0.055140834 -0.17903285 -0.06891077
-0.0548756 -0.17805181 -0.06792778
-0.054953407 -0.17884998 -0.0676828
-0.054523867 -0.17700443 -0.066359185
-0.054540228 -0.17747897 -0.06598715
-0.054058705 -0.17534786 -0.064568356
-0.054129176 -0.1761012 -0.064314775
-0.05414535 -0.17657027 -0.06394702
-0.24066806 -0.28157607 -1.3366618
-0.24077684 -0.2847317 -1.3341879
-0.23624814 -0.28145897 -1.3039336
-0.23109096 -0.27718276 -1.270052
-0.23119494 -0.2801995 -1.2676868
-0.228617 -0.27939126 -1.2493677
-0.2262086 -0.2787556 -1.2321289
-0.2239734 -0.27830485 -1.2159851
-0.22407377 -0.28121606 -1.2137027
-0.2217387 -0.2805244 -1.1970673
-0.21935466 -0.2796951 -1.1802112
-0.21945268 -0.2825376 -1.1779828
-0.21718869 -0.28179193 -1.1619319
-0.2149653 -0.281046 -1.146183
-0.21255015 -0.2799423 -1.1293808
-0.21264468 -0.28268445 -1.127231
-0.21040322 -0.28175446 -1.1115394
-0.20799121 -0.28049248 -1.0949253
-0.20808342 -0.28316715 -1.0928284
-0.20583291 -0.28206664 -1.0772469
-0.20374677 -0.28117156 -1.0626731
-0.2038368 -0.28378335 -1.0606256
-0.20177469 -0.28284222 -1.0462781
-0.19943313 -0.2813797 -1.0303962
-0.19726194 -0.2801394 -1.0155497
-0.1973487 -0.2826561 -1.0135766
-0.19536299 -0.28164306 -0.9998719
-0.19355685 -0.28088406 -0.9872377
-0.19364172 -0.28334582 -0.9853077
-0.19174254 -0.2823508 -0.9722276
-0.19020529 -0.2819394 -0.9612301
-0.19028841 -0.2843512 -0.95933926
-0.18873277 -0.28384387 -0.9483049
-0.18671463 -0.2824642 -0.9347408
-0.18486024 -0.28132603 -0.9221424
-0.18494068 -0.28365937 -0.92031306
-0.17923133 -0.27537942 -0.88649243
-0.15045904 -0.22437479 -0.7257045
-0.150523 -0.22623014 -0.72424996
-0.13784623 -0.20423672 -0.65291035
-0.13113353 -0.19315559 -0.6145464
-0.13118821 -0.19474201 -0.61330265
-0.12644717 -0.18716626 -0.58594626
-0.12242553 -0.18085086 -0.5626256
-0.120517574 -0.17852333 -0.55086625
-0.12056712 -0.17996076 -0.5497393
-0.119406454 -0.17902394 -0.5420873
-0.118532665 -0.17862263 -0.5360106
-0.11858121 -0.18003076 -0.5349067
-0.11752719 -0.17923357 -0.52790225
-0.1166575 -0.17877921 -0.52191097
-0.1167051 -0.18015963 -0.5208288
-0.115926914 -0.17985675 -0.51536024
-0.11514737 -0.17953002 -0.50990623
-0.114460476 -0.17937349 -0.5049639
-0.11450694 -0.18072122 -0.50390726
-0.11372737 -0.18034314 -0.4985066
-0.11294588 -0.17994 -0.49311757
-0.11299155 -0.18126513 -0.4920787
-0.11230079 -0.18102361 -0.48719606
-0.11151852 -0.18056758 -0.48185623
-0.11156346 -0.18187135 -0.48083407
-0.1108711 -0.1815787 -0.47599277
-0.11008743 -0.18106855 -0.4706989
-0.1093486 -0.1806358 -0.46565795
-0.10939244 -0.18190756 -0.4646609
-0.10869862 -0.18154493 -0.4598814
-0.10804957 -0.18126354 -0.45535025
-0.108092755 -0.18251584 -0.45436844
-0.10739732 -0.18210383 -0.44962823
-0.10674735 -0.18177637 -0.44513822
-0.10678985 -0.18300922 -0.4441717
-0.10609271 -0.18254769 -0.43947044
-0.10548738 -0.18227911 -0.4352508
-0.10483515 -0.1818858 -0.43081248
-0.10487668 -0.18309043 -0.42986804
-0.104223505 -0.18266891 -0.4254519
-0.10366185 -0.18244544 -0.42150986
-0.10370278 -0.18363248 -0.42057922
-0.10309439 -0.18327548 -0.41642904
-0.102485426 -0.1829009 -0.41229263
-0.10252575 -0.1840704 -0.41137576
-0.1019623 -0.18378164 -0.4074885
-0.10139831 -0.18347657 -0.40361398
-0.10078725 -0.1830418 -0.3995248
-0.10082671 -0.18418616 -0.3986276
-0.10026129 -0.1838397 -0.3947856
-0.09974158 -0.18359156 -0.39118114
-0.0997805 -0.18472028 -0.39029625
-0.09921393 -0.18433426 -0.38648692
-0.09869292 -0.18404786 -0.3829125
-0.09873129 -0.18516088 -0.3820399
-0.09816308 -0.18473408 -0.3782608
-0.09759458 -0.18429165 -0.37449577
-0.09707167 -0.18395124 -0.37096354
-0.09710922 -0.18504041 -0.37010965
-0.096586116 -0.18467884 -0.3665978
-0.09601544 -0.1841799 -0.36287528
-0.09605245 -0.18525338 -0.3620337
-0.09557426 -0.18497495 -0.3587694
-0.09504904 -0.18455996 -0.35529748
-0.09508555 -0.185619 -0.3544672
-0.09455957 -0.18518145 -0.3510131
-0.09407996 -0.18485415 -0.34778893
-0.09359958 -0.18451235 -0.3445743
-0.09363536 -0.18555006 -0.34376076
-0.093107864 -0.18506174 -0.34034815
-0.09262656 -0.18468551 -0.33716235
-0.09266183 -0.1857088 -0.3363601
-0.09217953 -0.1853111 -0.33318922
-0.09169703 -0.18490031 -0.33003038
-0.091214046 -0.18447573 -0.3268824
-0.09124862 -0.18547831 -0.3260964
-0.09081173 -0.18516383 -0.3231765
-0.090327576 -0.18470535 -0.32005504
-0.09036169 -0.18569475 -0.31927937
-0.08987682 -0.18521559 -0.31617418
-0.089391485 -0.18472262 -0.3130798
-0.089425124 -0.18569823 -0.31231496
-0.088986 -0.18531904 -0.3094457
-0.08854677 -0.18492822 -0.30658773
-0.08810678 -0.18452393 -0.30373818
-0.088139765 -0.1854807 -0.30298808
-0.08769915 -0.18505761 -0.30015334
-0.08721138 -0.1844853 -0.29712343
-0.08724391 -0.18542889 -0.29638368
-0.08684958 -0.18511358 -0.29378086
-0.08636097 -0.18450895 -0.29077837
-0.086393066 -0.18543999 -0.29004845
-0.08599775 -0.18509528 -0.2874689
-0.085555166 -0.18459877 -0.28469595
-0.085159056 -0.18423085 -0.28213468
-0.08519055 -0.18514434 -0.28141853
-0.084794156 -0.18476036 -0.2788718
-0.08435009 -0.18422116 -0.27613223
-0.08438117 -0.18512273 -0.27542543
-0.08398405 -0.18471077 -0.2729025
-0.08358627 -0.18428662 -0.27038723
-0.083616965 -0.1851769 -0.26968926
-0.08321859 -0.18473585 -0.2671873
-0.082820095 -0.1842843 -0.26469523
-0.08242094 -0.18382062 -0.26221094
-0.082451046 -0.18469398 -0.26152623
-0.08209883 -0.18436302 -0.25925267
-0.08169896 -0.18387252 -0.25679103
-0.0817287 -0.1847352 -0.2561147
-0.08132825 -0.18422773 -0.25366628
-0.08102286 -0.1840141 -0.25161874
-0.08105225 -0.18486674 -0.25095028
-0.08065063 -0.18433155 -0.24852203
-0.08034444 -0.1840947 -0.24649268
-0.079990014 -0.1836936 -0.24427569
-0.080018885 -0.1845312 -0.24361902
-0.079616174 -0.18395905 -0.24122114
-0.07926085 -0.18353221 -0.23902428
-0.07928936 -0.18435913 -0.23837598
-0.078933746 -0.18391798 -0.23619182
-0.07857756 -0.18346606 -0.23401465
-0.07860573 -0.18428296 -0.23337422
-0.07824902 -0.183816 -0.23120886
-0.0779401 -0.18350008 -0.22924146
-0.07763086 -0.18317537 -0.22728096
-0.07765855 -0.18397845 -0.22665134
-0.07730069 -0.18347764 -0.22451255
-0.07699068 -0.18313034 -0.22256975
-0.077018045 -0.183924 -0.22194752
-0.07670759 -0.18356358 -0.22001506
-0.07639682 -0.18319432 -0.2180895
-0.07642388 -0.18397921 -0.21747416
-0.07611268 -0.18359682 -0.21555892
-0.07580138 -0.18320638 -0.2136514
-0.0754412 -0.18263842 -0.21156524
-0.07546778 -0.18340951 -0.21096072
-0.07515548 -0.18299572 -0.20907009
-0.07484311 -0.18257394 -0.20718715
-0.07486939 -0.18333624 -0.20658952
-0.074604586 -0.18307087 -0.2048975
-0.07424298 -0.18245602 -0.20284952
-0.07426896 -0.18320952 -0.20225878
-0.07395538 -0.18275265 -0.20040342
-0.07368984 -0.18245986 -0.19873437
-0.07337545 -0.18198524 -0.19689146
-0.073401 -0.18272622 -0.19631054
-0.07313478 -0.18241398 -0.19465676
-0.07281989 -0.18191887 -0.19283143
-0.07284515 -0.18265171 -0.1922569
-0.07257804 -0.18231918 -0.19061752
-0.072311126 -0.1819808 -0.18898575
-0.07233613 -0.1827061 -0.18841712
-0.07206837 -0.18235475 -0.1867925
-0.071800806 -0.18199755 -0.18517546
-0.07153276 -0.18163201 -0.18356352
-0.07155738 -0.18234602 -0.18300374
-0.071288936 -0.18196915 -0.18140063
-0.071020484 -0.18158568 -0.17980428
-0.07104484 -0.18229216 -0.17925042
-0.070775755 -0.18189646 -0.17766204
-0.07050639 -0.18149324 -0.17607956
-0.07023677 -0.18108249 -0.17450297
-0.07026073 -0.18177766 -0.17395796
-0.07003948 -0.18154086 -0.17255981
-0.06976923 -0.18111189 -0.17099749
-0.06979296 -0.18180016 -0.17045788
-0.06952257 -0.18136084 -0.16890526
-0.06930052 -0.18110083 -0.16752534
-0.06932401 -0.1817822 -0.16699116
-0.06905299 -0.18132469 -0.16545278
-0.06878148 -0.18085876 -0.16391952
-0.06855887 -0.18057652 -0.16255867
-0.068582 -0.18124723 -0.16203284
-0.06831013 -0.1807641 -0.16051471
-0.068086706 -0.18046463 -0.15916584
-0.068109594 -0.18112844 -0.15864542
-0.06783711 -0.1806272 -0.15714161
-0.06761316 -0.18031143 -0.15580557
-0.06763581 -0.18096834 -0.15529056
-0.06741177 -0.18064414 -0.15396275
-0.06713844 -0.18011795 -0.15247868
-0.06691399 -0.17978069 -0.15116127
-0.06693629 -0.18042755 -0.15065412
-0.06671121 -0.1800797 -0.14934312
-0.0664862 -0.1797267 -0.14803796
-0.066508286 -0.18036729 -0.14753574
-0.066258214 -0.17990461 -0.14615841
-0.06600791 -0.17943504 -0.14478652
-0.06602976 -0.18006873 -0.14428972
-0.0658531 -0.17989126 -0.14316139
-0.06560221 -0.17940535 -0.14180224
-0.06535093 -0.1789118 -0.14044796
-0.065372445 -0.1795361 -0.13995853
-0.06512116 -0.17903365 -0.13861348
-0.064894095 -0.17862566 -0.13735032
-0.06491539 -0.17924337 -0.13686605
-0.064687796 -0.17882508 -0.1356096
-0.06443531 -0.17829749 -0.1342818
-0.06445637 -0.1789086 -0.1338027
-0.06417925 -0.17826888 -0.13240853
-0.06395083 -0.17782748 -0.13116993
-0.063697696 -0.17727655 -0.12986162
-0.06371841 -0.17787729 -0.12939066
-0.06343999 -0.1772104 -0.12801512
-0.06316156 -0.17653704 -0.12664622
-0.06318201 -0.17713024 -0.12618116
-0.06292766 -0.17655005 -0.12489426
-0.06267305 -0.17596284 -0.12361272
-0.06269326 -0.17654915 -0.12315305
-0.06238911 -0.17574 -0.1217342
-0.062183596 -0.17534937 -0.120613165
-0.061903983 -0.17463349 -0.11927966
-0.06192383 -0.17520916 -0.11882834
-0.061693035 -0.17469583 -0.117646985
-0.06141222 -0.17395927 -0.116326034
-0.06143183 -0.17452803 -0.115880124
-0.061200757 -0.17399965 -0.1147124
-0.060969457 -0.17346494 -0.11354959
-0.06098885 -0.17402743 -0.1131086
-0.060756918 -0.1734819 -0.11195222
-0.060499955 -0.1728205 -0.110730484
-0.06026789 -0.17226349 -0.10958509
-0.06028695 -0.17281626 -0.109151736
-0.06005422 -0.17224833 -0.108012795
-0.05982196 -0.17167716 -0.10688065
-0.059840795 -0.17222364 -0.10645221
-0.05960751 -0.17163996 -0.10532554
-0.05939955 -0.17116475 -0.10427421
-0.059418183 -0.17170526 -0.103850454
-0.059209924 -0.17122155 -0.10280576
-0.059027016 -0.1708478 -0.10183515
-0.05884329 -0.17046607 -0.100866675
-0.058861647 -0.17099874 -0.10044907
-0.05870323 -0.17072597 -0.09955538
-0.058569606 -0.17056274 -0.098732054
-0.05858783 -0.17109135 -0.09831764
-0.058479626 -0.17103997 -0.09756687
-0.05832137 -0.1707558 -0.09668627
-0.05833947 -0.17128065 -0.09627479
-0.058230966 -0.17122081 -0.095530674
-0.058122043 -0.17115633 -0.09478817
-0.05801366 -0.17109172 -0.094049826
-0.058031593 -0.17161186 -0.09364203
-0.057973105 -0.1717759 -0.093036786
-0.057864845 -0.1717058 -0.09230502
-0.05788269 -0.17222343 -0.0918992
-0.057824023 -0.1723821 -0.091298126
-0.057765637 -0.17254055 -0.090699404
-0.05778342 -0.17305629 -0.09029507
-0.057699867 -0.17309348 -0.089635395
-0.05764131 -0.17324689 -0.08904059
-0.05755724 -0.17327772 -0.08838368
-0.057574898 -0.17379001 -0.08798205
-0.057516158 -0.17393833 -0.08739116
-0.057432253 -0.17396499 -0.08673986
-0.057449836 -0.17447509 -0.08633995
-0.057390947 -0.17461851 -0.08575304
-0.05730689 -0.17463945 -0.085106514
-0.057247896 -0.17477898 -0.0845229
-0.057265375 -0.17528597 -0.08412544
-0.057181604 -0.17530337 -0.08348475
-0.057096973 -0.1753145 -0.08284416
-0.057114363 -0.17581898 -0.082448654
-0.057055224 -0.17595103 -0.081871726
-0.056944855 -0.17583174 -0.081175566
-0.056962162 -0.17633371 -0.08078202
-0.056877874 -0.17633821 -0.080150895
-0.056742433 -0.17608966 -0.07940284
-0.056708533 -0.17633726 -0.07889332
-0.056725707 -0.17683549 -0.078502715
-0.056590546 -0.17658155 -0.07776228
-0.05655872 -0.17683579 -0.07726126
-0.056575812 -0.17733157 -0.07687259
-0.05646565 -0.17719515 -0.07619572
-0.056358304 -0.17707019 -0.07552786
-0.05637529 -0.17756288 -0.075141594
-0.0561918 -0.17705357 -0.074307635
-0.056109406 -0.17704654 -0.07370258
-0.055929936 -0.17655034 -0.07288488
-0.055946715 -0.177037 -0.07250335
-0.055869035 -0.17704774 -0.07191484
-0.055796854 -0.17708434 -0.07134031
-0.05581355 -0.17756876 -0.07096053
-0.055908807 -0.1784513 -0.07075039
-0.055841018 -0.1785074 -0.07018818
-0.055857714 -0.17899175 -0.06980845
-0.055743787 -0.17881015 -0.06915071
-0.055474225 -0.17783071 -0.068165995
-0.055552963 -0.17862852 -0.06792139
-0.05556952 -0.17910857 -0.06754504
-0.05513292 -0.17726006 -0.066223
-0.054643746 -0.17513178 -0.06480117
-0.0546599 -0.1756002 -0.06443394
-0.054731235 -0.17635387 -0.064180166
-0.23996234 -0.27983543 -1.3046097
-0.24006882 -0.282924 -1.3021883
-0.23472068 -0.27847317 -1.2677656
-0.23193 -0.2774477 -1.2484605
-0.22944391 -0.2767754 -1.2310126
-0.22954518 -0.27971333 -1.2287092
-0.22736908 -0.27938414 -1.2131685
-0.2249546 -0.27865034 -1.196307
-0.22505361 -0.2815224 -1.1940553
-0.22263558 -0.28068495 -1.1772752
-0.22035196 -0.2799818 -1.161337
-0.22044864 -0.28278658 -1.1591381
-0.21817917 -0.2820118 -1.1433772
-0.21588561 -0.2811388 -1.1275421
-0.21360366 -0.2802217 -1.1118377
-0.21369697 -0.28292874 -1.1097155
-0.21124 -0.2816454 -1.0931127
-0.20911744 -0.28082362 -1.078473
-0.20920852 -0.28346545 -1.0764018
-0.20692898 -0.28230608 -1.0609659
-0.20481423 -0.28135183 -1.0465199
-0.20490313 -0.28393114 -1.0444977
-0.20269431 -0.28273723 -1.0296135
-0.20049718 -0.28150356 -1.014856
-0.1984773 -0.2805067 -1.0011467
-0.19856307 -0.28299478 -0.99919605
-0.19673164 -0.2822359 -0.98661554
-0.19488311 -0.28139883 -0.9739917
-0.19496709 -0.28383446 -0.9720822
-0.19330962 -0.28325397 -0.9605868
-0.1916229 -0.2825779 -0.94897676
-0.19170521 -0.28496578 -0.9471047
-0.1895793 -0.28344443 -0.9331647
-0.18745291 -0.28186595 -0.9192806
-0.18132573 -0.2730467 -0.8836962
-0.1814031 -0.27529037 -0.8819372
-0.14898491 -0.21835266 -0.70430565
-0.13924497 -0.20217952 -0.6499702
-0.13930255 -0.20384978 -0.6486607
-0.1332212 -0.194106 -0.6143681
-0.12845354 -0.18666588 -0.5872775
-0.128506 -0.18818776 -0.58608437
-0.12445754 -0.18192913 -0.56301904
-0.1223529 -0.1792794 -0.55040294
-0.12117553 -0.17835797 -0.5427644
-0.12122451 -0.1797787 -0.5416506
-0.12024363 -0.17919362 -0.53509796
-0.11926478 -0.17858653 -0.5285827
-0.11931281 -0.17997949 -0.5274906
-0.11833625 -0.17933823 -0.52102745
-0.117635645 -0.17922263 -0.51603407
-0.11768285 -0.18059173 -0.5149607
-0.11688893 -0.18025926 -0.50951093
-0.1160973 -0.17991033 -0.5040948
-0.11539691 -0.1797273 -0.49917263
-0.115442984 -0.18106376 -0.49812487
-0.114646874 -0.18065439 -0.49273866
-0.11385119 -0.18022485 -0.4873763
-0.11389649 -0.18153867 -0.48634627
-0.11319201 -0.18127018 -0.48148277
-0.112487 -0.18098201 -0.47663605
-0.11164242 -0.18037713 -0.4710985
-0.11168662 -0.18165895 -0.47009358
-0.11098091 -0.18132097 -0.46529323
-0.11027415 -0.18096213 -0.46050677
-0.11031765 -0.18222386 -0.4595176
-0.109656885 -0.18193817 -0.45499092
-0.10894923 -0.1815315 -0.45024738
-0.108992055 -0.18277377 -0.44927347
-0.10832968 -0.18244053 -0.4447845
-0.107667014 -0.18208921 -0.44031197
-0.1070037 -0.18171908 -0.43585423
-0.10704556 -0.1829331 -0.43490243
-0.10638127 -0.18253474 -0.4304668
-0.10576315 -0.18222508 -0.42627642
-0.105804384 -0.18342091 -0.4253389
-0.10518563 -0.1830855 -0.4211705
-0.10456629 -0.18273255 -0.4170159
-0.10460691 -0.1839108 -0.4160922
-0.103986666 -0.1835315 -0.41195825
-0.10341302 -0.18324652 -0.4080669
-0.10283858 -0.18294461 -0.4041871
-0.10287834 -0.18409777 -0.40328306
-0.1023033 -0.183772 -0.3994237
-0.10168065 -0.18331614 -0.39535153
-0.10171983 -0.18445237 -0.39446074
-0.10119047 -0.18420023 -0.39085847
-0.100613475 -0.18381736 -0.38704386
-0.1006521 -0.1849379 -0.38616538
-0.100121416 -0.18464741 -0.38259307
-0.09954329 -0.18422507 -0.3788112
-0.09901182 -0.18390453 -0.3752643
-0.09904964 -0.18500185 -0.37440395
-0.098517105 -0.184658 -0.3708734
-0.097937346 -0.18418057 -0.36713672
-0.09797464 -0.18526222 -0.36628872
-0.09744079 -0.18488011 -0.36278817
-0.09690669 -0.18448363 -0.35930076
-0.09694345 -0.18555021 -0.35846457
-0.09640859 -0.18513118 -0.35499486
-0.09587318 -0.18469708 -0.35153696
-0.095337264 -0.18424793 -0.34809092
-0.09537325 -0.18529192 -0.34727243
-0.094884 -0.18494576 -0.34406027
-0.09439484 -0.18458724 -0.34086144
-0.09443035 -0.18561743 -0.34005377
-0.093939915 -0.18523674 -0.33686867
-0.09340146 -0.18471417 -0.33348012
-0.09343648 -0.18572992 -0.33268377
-0.0929451 -0.18531482 -0.32952744
-0.09250082 -0.18501581 -0.32659468
-0.0920085 -0.18457371 -0.32345948
-0.092042826 -0.18556939 -0.32267886
-0.09154951 -0.18510576 -0.3195586
-0.091103956 -0.18476234 -0.3166625
-0.09113783 -0.18574487 -0.31589222
-0.090643644 -0.18524817 -0.31279984
-0.09019699 -0.18487278 -0.30992886
-0.090230405 -0.1858421 -0.30916893
-0.08973505 -0.18531156 -0.30610314
-0.08928699 -0.18490326 -0.3032559
-0.0888388 -0.18448332 -0.30041984
-0.08887155 -0.1854332 -0.29967514
-0.088422425 -0.18499355 -0.29685256
-0.087973185 -0.18454228 -0.29404122
-0.0880055 -0.18547961 -0.29330635
-0.087555915 -0.18501045 -0.2905111
-0.087153845 -0.1846692 -0.28793004
-0.08718575 -0.18559462 -0.28720453
-0.086734824 -0.18509385 -0.28443214
-0.08633145 -0.18472286 -0.28187242
-0.0859283 -0.18434238 -0.27932414
-0.0859596 -0.18525022 -0.27861243
-0.08550719 -0.18470678 -0.27587345
-0.085102744 -0.18429655 -0.27334654
-0.085133635 -0.18519248 -0.27264413
-0.08472888 -0.18476616 -0.27013168
-0.084371656 -0.18447453 -0.26782653
-0.084402174 -0.18535978 -0.2671325
-0.08399673 -0.18490668 -0.26464278
-0.08359035 -0.1844406 -0.2621596
-0.08323213 -0.18411337 -0.25988403
-0.08326208 -0.18498231 -0.2592028
-0.08285501 -0.18448941 -0.2567423
-0.08244752 -0.18398519 -0.25429055
-0.082477085 -0.18484284 -0.25361815
-0.082165845 -0.18462671 -0.25157043
-0.08175719 -0.18409473 -0.24913882
-0.08178641 -0.18494233 -0.2484743
-0.0814261 -0.18454932 -0.24625179
-0.08111374 -0.18430059 -0.24422967
-0.080752775 -0.18388811 -0.24202238
-0.0807815 -0.18472129 -0.24136917
-0.08037121 -0.1841361 -0.2389808
-0.08005772 -0.18385473 -0.23698424
-0.08008609 -0.18467787 -0.2363389
-0.07967486 -0.18406568 -0.23397166
-0.07936081 -0.18376186 -0.23199424
-0.078997545 -0.18328843 -0.22983326
-0.0790254 -0.18409653 -0.22919972
-0.078710556 -0.18377008 -0.22723998
-0.07839518 -0.1834341 -0.22528625
-0.07842273 -0.18423341 -0.22465959
-0.078058355 -0.18372184 -0.22253
-0.077742435 -0.18336406 -0.22059487
-0.07776967 -0.18415396 -0.21997559
-0.077453285 -0.18378296 -0.21805078
-0.077136606 -0.18340322 -0.21613286
-0.07681986 -0.18301547 -0.21422268
-0.07684664 -0.18379219 -0.21361375
-0.07648002 -0.18322212 -0.21152848
-0.07616227 -0.182811 -0.20963515
-0.07618873 -0.18357831 -0.2090336
-0.07591952 -0.18332346 -0.20733282
-0.075601034 -0.18289103 -0.20545626
-0.07562721 -0.18365018 -0.20486107
-0.07525941 -0.18303405 -0.2028149
-0.07494037 -0.1825798 -0.20095685
-0.074670136 -0.18228936 -0.19928545
-0.074695855 -0.18303536 -0.19870059
-0.074425004 -0.1827328 -0.1970372
-0.074055545 -0.18207389 -0.19502318
-0.07408097 -0.18281111 -0.19444521
-0.07380965 -0.18248928 -0.1927984
-0.073538095 -0.18215998 -0.19115753
-0.073563255 -0.18288967 -0.19058546
-0.073291525 -0.1825499 -0.18895428
-0.07301909 -0.1822009 -0.18732728
-0.07274661 -0.1818452 -0.18570703
-0.07277138 -0.18256359 -0.18514383
-0.07249876 -0.18219753 -0.18353333
-0.07222563 -0.18182303 -0.18192782
-0.07225014 -0.18253388 -0.18137053
-0.071927205 -0.1819662 -0.17960152
-0.071653664 -0.18157317 -0.17801212
-0.071677886 -0.18227588 -0.1774612
-0.07140345 -0.18186972 -0.17587897
-0.07117851 -0.18164131 -0.17447385
-0.07090407 -0.18122248 -0.1729046
-0.070927925 -0.18191454 -0.17236204
-0.07065285 -0.18148357 -0.1708008
-0.07042736 -0.18123282 -0.16941474
-0.07045098 -0.18191797 -0.1688776
-0.07017528 -0.18146883 -0.16733065
-0.06989931 -0.1810121 -0.16578957
-0.06992268 -0.18168971 -0.16525833
-0.06969604 -0.18141173 -0.16389216
-0.06941971 -0.18093781 -0.16236621
-0.06919289 -0.18064766 -0.16101122
-0.0692159 -0.18131523 -0.16048785
-0.068938695 -0.18082221 -0.15897536
-0.0687113 -0.18051575 -0.15763317
-0.06873408 -0.18117642 -0.15711522
-0.068506375 -0.18086061 -0.15578045
-0.068278454 -0.1805385 -0.15445058
-0.068301015 -0.18119289 -0.15393755
-0.06802261 -0.1806642 -0.15245315
-0.06779412 -0.18032582 -0.15113612
-0.06756543 -0.17998114 -0.14982396
-0.067587644 -0.18062551 -0.14931878
-0.067358635 -0.18027146 -0.14801404
-0.067079134 -0.1797108 -0.1465548
-0.06710111 -0.18034828 -0.14605503
-0.06687138 -0.1799773 -0.14476258
-0.06666676 -0.17970182 -0.14355457
-0.06668853 -0.18033332 -0.14305948
-0.06645826 -0.17994693 -0.14177905
-0.06617755 -0.17935081 -0.14034757
-0.0659468 -0.17895119 -0.13907744
-0.06596823 -0.17957266 -0.13859022
-0.065737344 -0.17916435 -0.13732804
-0.065505855 -0.17874815 -0.13606955
-0.06552707 -0.17936333 -0.13558725
-0.065270156 -0.1788345 -0.13425994
-0.065013215 -0.1782996 -0.13293864
-0.06503419 -0.1789079 -0.13246174
-0.06480217 -0.1784675 -0.13122457
-0.06451934 -0.17781048 -0.12984076
-0.06426132 -0.1772504 -0.12853768
-0.06428193 -0.17784834 -0.12806892
-0.06402379 -0.17727892 -0.12677465
-0.063740306 -0.17659716 -0.12541172
-0.06376067 -0.17718789 -0.124948606
-0.063476555 -0.17649384 -0.12359379
-0.063217565 -0.17589962 -0.122318976
-0.06295806 -0.17529736 -0.12104874
-0.06297806 -0.17587742 -0.12059399
-0.06271877 -0.17526723 -0.11933354
-0.062459253 -0.17465019 -0.11807852
-0.06247901 -0.17522335 -0.11762917
-0.062218536 -0.17459339 -0.11638055
-0.061983585 -0.17406738 -0.115210526
-0.062003113 -0.17463395 -0.11476634
-0.061742354 -0.17398833 -0.113531865
-0.06153201 -0.17355539 -0.11244504
-0.061245278 -0.17278571 -0.11114948
-0.061264463 -0.17334223 -0.110713184
-0.06102839 -0.17278418 -0.10956821
-0.06079176 -0.17221835 -0.108427204
-0.06081073 -0.17276858 -0.10799582
-0.060599666 -0.1723072 -0.10693325
-0.060337275 -0.17161472 -0.10573534
-0.06035603 -0.17215869 -0.10530888
-0.060119204 -0.17157072 -0.1041894
-0.059932694 -0.1712008 -0.1032113
-0.05974635 -0.17082733 -0.10223805
-0.05976482 -0.17136316 -0.10181797
-0.059578206 -0.17098215 -0.1008506
-0.059417084 -0.17071109 -0.09995537
-0.05943539 -0.17124219 -0.09953899
-0.059299376 -0.17107858 -0.098715715
-0.059163556 -0.17091268 -0.097896256
-0.059181735 -0.17144004 -0.09748282
-0.059046045 -0.17126997 -0.096668646
-0.058935273 -0.17120998 -0.0959224
-0.058799364 -0.17103277 -0.09511391
-0.058817357 -0.17155479 -0.094704665
-0.058757775 -0.171722 -0.09409667
-0.058621574 -0.17153642 -0.093294844
-0.058639478 -0.1720556 -0.09288781
-0.058528848 -0.17198302 -0.09215559
-0.058469355 -0.17214376 -0.09155492
-0.05848717 -0.17266043 -0.09114985
-0.058427215 -0.17281666 -0.09055049
-0.058367915 -0.17297438 -0.08995441
-0.05828273 -0.17300996 -0.089295834
-0.05830043 -0.17352352 -0.08889321
-0.05823985 -0.17367105 -0.08829833
-0.05812935 -0.17358302 -0.087583005
-0.058146972 -0.17409407 -0.08718234
-0.058086578 -0.17423801 -0.08659257
-0.058026884 -0.17438361 -0.08600611
-0.058044437 -0.17489278 -0.08560693
-0.0579843 -0.17503396 -0.08502182
-0.057898175 -0.17505017 -0.084376454
-0.05783837 -0.1751895 -0.08379566
-0.05785581 -0.17569552 -0.08339894
-0.057744022 -0.17558421 -0.08269838
-0.05768371 -0.17571667 -0.08212099
-0.05770107 -0.17622022 -0.08172622
-0.057588663 -0.17609991 -0.081030436
-0.057502788 -0.17610483 -0.08039863
-0.05752005 -0.17660555 -0.08000607
-0.057356134 -0.17622982 -0.07919888
-0.057347365 -0.17660251 -0.078748874
-0.057210445 -0.17635223 -0.07800885
-0.05722756 -0.1768486 -0.0776197
-0.057194065 -0.17709817 -0.07711684
-0.05705664 -0.1768387 -0.07638258
-0.05707367 -0.17733261 -0.075995356
-0.056989018 -0.1773275 -0.075382814
-0.056803446 -0.17682406 -0.07454982
-0.05682035 -0.17731433 -0.074165456
-0.056686066 -0.17705813 -0.07345079
-0.0565271 -0.17667678 -0.07268557
-0.056450717 -0.17670126 -0.072102666
-0.056467444 -0.17718647 -0.07172226
-0.056393925 -0.17722252 -0.071148425
-0.05648296 -0.17806746 -0.07092321
-0.05649968 -0.17855245 -0.070542976
-0.056434058 -0.17862512 -0.06998877
-0.056292094 -0.17831317 -0.069275714
-0.056308717 -0.17879528 -0.06889775
-0.056077115 -0.1780272 -0.06800295
-0.056132145 -0.17870069 -0.06770709
-0.055688065 -0.17685118 -0.06638141
-0.05570441 -0.17732528 -0.06600972
-0.055192653 -0.17511867 -0.06456001
-0.055341806 -0.17626303 -0.06446344
-0.05535799 -0.1767324 -0.06409546
-0.24381463 -0.28134966 -1.3030773
-0.23815536 -0.27663818 -1.2673643
-0.2382591 -0.27964714 -1.2650054
-0.23536542 -0.2785245 -1.2454178
-0.23286039 -0.2778654 -1.2281389
-0.23060979 -0.27749643 -1.2123848
-0.2307098 -0.2803977 -1.2101103
-0.22812143 -0.27945513 -1.1925261
-0.2259634 -0.2790643 -1.177458
-0.22606112 -0.28189886 -1.1752357
-0.223599 -0.28097478 -1.1585376
-0.22143796 -0.28043115 -1.1436057
-0.21895161 -0.27934375 -1.1269022
-0.21904588 -0.28207856 -1.1247581
-0.21689078 -0.28139555 -1.1100122
-0.21456148 -0.28038836 -1.0943521
-0.2146536 -0.28306028 -1.0922574
-0.21233433 -0.28197607 -1.0767484
-0.20999938 -0.280806 -1.0612155
-0.21008924 -0.2834129 -1.0591718
-0.20812154 -0.2827364 -1.0457628
-0.20579675 -0.28143334 -1.0304397
-0.20355491 -0.2802037 -1.0156361
-0.20364164 -0.2827193 -1.0136639
-0.20167828 -0.2818597 -1.0004748
-0.1999006 -0.2812563 -0.9883527
-0.1999855 -0.2837195 -0.9864216
-0.19800983 -0.2827121 -0.97329664
-0.19650947 -0.28245938 -0.96280134
-0.1965927 -0.28487384 -0.9609084
-0.19469793 -0.283882 -0.9483472
-0.19236532 -0.2820811 -0.93348175
-0.19011004 -0.28035468 -0.9190939
-0.19019018 -0.28267923 -0.9172715
-0.17954081 -0.26598874 -0.8581361
-0.14877884 -0.21313395 -0.69210374
-0.14883988 -0.21490425 -0.69071585
-0.14071472 -0.20185971 -0.6459173
-0.13513227 -0.19324411 -0.6147803
-0.13518694 -0.1948303 -0.6135368
-0.13043965 -0.18754646 -0.5870139
-0.12628664 -0.18124823 -0.56373537
-0.12414647 -0.17861348 -0.5511092
-0.124196015 -0.18005076 -0.54998237
-0.12290412 -0.17894346 -0.5418625
-0.12199738 -0.17853826 -0.53577983
-0.12204588 -0.17994504 -0.53467697
-0.121050306 -0.17933251 -0.52817124
-0.12005713 -0.17869887 -0.52170455
-0.12010468 -0.18007798 -0.5206234
-0.119299866 -0.17977703 -0.515164
-0.11858495 -0.17963333 -0.510187
-0.11777938 -0.1792899 -0.5047658
-0.1178258 -0.1806364 -0.5037102
-0.117112525 -0.18044803 -0.49879104
-0.11630217 -0.18004361 -0.49339858
-0.11634786 -0.18136874 -0.49235967
-0.115537666 -0.18093312 -0.4870006
-0.114820495 -0.18066902 -0.48213148
-0.11486545 -0.1819728 -0.48110935
-0.11414749 -0.1816791 -0.47626522
-0.11333476 -0.18116708 -0.47096664
-0.11261614 -0.1808335 -0.46615878
-0.112660006 -0.1821059 -0.46516123
-0.11189353 -0.18164188 -0.46014485
-0.11122098 -0.18136048 -0.45561343
-0.11126416 -0.1826128 -0.45463163
-0.11054327 -0.1822 -0.4498893
-0.109822035 -0.18176784 -0.44516438
-0.10986452 -0.18300007 -0.44419834
-0.109237224 -0.18274829 -0.4399609
-0.10856183 -0.18237306 -0.43550587
-0.10788578 -0.18197903 -0.43106556
-0.10792731 -0.18318367 -0.43012115
-0.10729821 -0.18286987 -0.42593458
-0.10666822 -0.1825379 -0.42176053
-0.10670914 -0.18372495 -0.4208299
-0.10612648 -0.18347758 -0.4169079
-0.10544729 -0.18299198 -0.4125395
-0.1054876 -0.18416148 -0.41162264
-0.10490351 -0.18387209 -0.40773362
-0.10431884 -0.18356639 -0.40385744
-0.10373338 -0.1832438 -0.3999928
-0.10377286 -0.1843888 -0.39909512
-0.10313892 -0.1839282 -0.39502546
-0.102600165 -0.18367954 -0.39141947
-0.10263907 -0.18480824 -0.39053458
-0.102051616 -0.18442097 -0.3867223
-0.101511784 -0.18413465 -0.38314754
-0.101550154 -0.18524766 -0.38227496
-0.1009613 -0.18482023 -0.37849414
-0.10037216 -0.1843772 -0.37472743
-0.099830486 -0.18403694 -0.37119496
-0.09986802 -0.18512611 -0.37034106
-0.09932557 -0.18476324 -0.3668263
-0.09873424 -0.18426369 -0.3631021
-0.09877124 -0.18533717 -0.3622605
-0.09827556 -0.18505818 -0.3589947
-0.097731575 -0.18464334 -0.3555225
-0.09776808 -0.1857024 -0.35469225
-0.09722301 -0.18526423 -0.35123646
-0.09667718 -0.1848103 -0.3477913
-0.09617956 -0.18446805 -0.34457695
-0.09621532 -0.18550514 -0.3437639
-0.095717035 -0.18514217 -0.3405658
-0.095217966 -0.1847647 -0.33737728
-0.09525324 -0.18578798 -0.33657503
-0.09470513 -0.18526134 -0.33318862
-0.09425348 -0.18497844 -0.33024246
-0.09375302 -0.18455333 -0.327093
-0.09378759 -0.1855559 -0.326307
-0.093286395 -0.18511009 -0.32317376
-0.092784755 -0.18465048 -0.3200514
-0.09281885 -0.18563926 -0.3192762
-0.09236465 -0.1852908 -0.31637925
-0.09186211 -0.18479812 -0.31328475
-0.09189575 -0.18577373 -0.3125199
-0.091441065 -0.18539494 -0.30965075
-0.0909856 -0.18500273 -0.30679002
-0.09048149 -0.18446308 -0.3037325
-0.09051446 -0.18541923 -0.3029829
-0.090106815 -0.18513292 -0.30035567
-0.08960124 -0.18455914 -0.29732287
-0.08963377 -0.18550274 -0.29658312
-0.08922511 -0.18518697 -0.2939791
-0.088767745 -0.18472134 -0.29118028
-0.08879987 -0.18565302 -0.29044986
-0.08834152 -0.18516766 -0.2876644
-0.0879315 -0.18481117 -0.28509253
-0.087472625 -0.18430229 -0.28232765
-0.08750412 -0.18521577 -0.28161147
-0.08709342 -0.18483137 -0.27906358
-0.08668233 -0.18443565 -0.27652448
-0.08671343 -0.18533784 -0.2758172
-0.08630177 -0.18492523 -0.2732914
-0.08588971 -0.18450129 -0.27077448
-0.08592042 -0.18539219 -0.27007604
-0.08550807 -0.18495221 -0.2675736
-0.08514434 -0.18464868 -0.26527894
-0.0847312 -0.18418665 -0.26279357
-0.08476135 -0.18506126 -0.26210788
-0.08439671 -0.18473195 -0.2598333
-0.083982356 -0.1842415 -0.25736848
-0.08401214 -0.18510544 -0.25669116
-0.083646595 -0.1847504 -0.25443673
-0.08328098 -0.18438609 -0.25219116
-0.08331042 -0.18523999 -0.2515217
-0.08289453 -0.18470557 -0.24909125
-0.08252798 -0.1843155 -0.24686578
-0.08216086 -0.18391463 -0.24464719
-0.08218975 -0.18475285 -0.24399003
-0.08182234 -0.18433768 -0.2417842
-0.08150373 -0.18406838 -0.23977762
-0.0815323 -0.18489718 -0.23912786
-0.08116381 -0.18445681 -0.23694028
-0.080794975 -0.18400638 -0.23476057
-0.080823205 -0.18482515 -0.23411867
-0.08045408 -0.18436038 -0.23195162
-0.08008438 -0.18388487 -0.2297916
-0.07976385 -0.18356036 -0.22782832
-0.07979158 -0.18436469 -0.22719774
-0.07947083 -0.18402775 -0.22524565
-0.07909997 -0.18351834 -0.2231122
-0.07912737 -0.18431327 -0.22248898
-0.07880583 -0.18395373 -0.22055462
-0.078483984 -0.18358539 -0.21862714
-0.07851109 -0.18437153 -0.21801081
-0.07813935 -0.18382479 -0.21590956
-0.077866435 -0.18360053 -0.21418427
-0.077493586 -0.18303342 -0.21209605
-0.07752021 -0.18380576 -0.21149054
-0.07719706 -0.18339367 -0.20959885
-0.076923184 -0.1831412 -0.20789571
-0.07694953 -0.18390536 -0.20729661
-0.076575585 -0.18330078 -0.20523924
-0.07625115 -0.18285719 -0.20337078
-0.076277174 -0.18361194 -0.20277905
-0.07595252 -0.18315598 -0.20092176
-0.075677246 -0.18286332 -0.1992501
-0.07535202 -0.18239042 -0.19740613
-0.075377606 -0.18313266 -0.19682422
-0.07505192 -0.1826466 -0.19499055
-0.07477593 -0.18232715 -0.19334139
-0.07480124 -0.18306123 -0.19276589
-0.074524865 -0.18273054 -0.1911256
-0.07419817 -0.18221502 -0.18931508
-0.0742232 -0.18294095 -0.18874596
-0.07394591 -0.1825899 -0.18712002
-0.073668845 -0.18223307 -0.18550174
-0.073391296 -0.18186785 -0.18388848
-0.073415935 -0.18258248 -0.18332821
-0.07313798 -0.18220598 -0.18172385
-0.07286 -0.18182279 -0.18012618
-0.07288438 -0.1825299 -0.1795718
-0.07260578 -0.18213452 -0.17798215
-0.07232692 -0.18173167 -0.17639841
-0.072047785 -0.18132123 -0.17482053
-0.072071776 -0.18201703 -0.17427503
-0.07179225 -0.1815953 -0.172706
-0.071562834 -0.18135202 -0.17131215
-0.07158659 -0.18204091 -0.17077206
-0.071306705 -0.18160196 -0.16921817
-0.071026295 -0.1811545 -0.16766931
-0.07104979 -0.18183587 -0.16713512
-0.07081971 -0.18156718 -0.16576278
-0.07053869 -0.18110158 -0.16422823
-0.07030817 -0.18081973 -0.16286625
-0.07033131 -0.18149108 -0.16233993
-0.07004993 -0.18100828 -0.16082051
-0.0698186 -0.1807092 -0.1594705
-0.069841504 -0.18137363 -0.15894958
-0.069610104 -0.18106608 -0.1576078
-0.069327615 -0.18055728 -0.15610726
-0.06935029 -0.18121482 -0.15559176
-0.06911833 -0.18089102 -0.1542628
-0.06888616 -0.18056095 -0.15293874
-0.06865379 -0.18022463 -0.15161961
-0.06867614 -0.18087274 -0.1511115
-0.06844345 -0.18052705 -0.14979978
-0.06815948 -0.17997563 -0.14833272
-0.0681816 -0.18061686 -0.14783001
-0.067948185 -0.18025424 -0.1465306
-0.06768933 -0.17978594 -0.14515771
-0.06771121 -0.18042058 -0.14466017
-0.06750265 -0.18014257 -0.14345168
-0.06729405 -0.1798595 -0.14224808
-0.06700864 -0.17926572 -0.14081423
-0.06703019 -0.17989096 -0.14032406
-0.06677001 -0.17938845 -0.13897698
-0.066560656 -0.17908399 -0.13779007
-0.066581994 -0.17970294 -0.13730483
-0.06634688 -0.17928724 -0.13604791
-0.066085696 -0.17876066 -0.13471842
-0.0661068 -0.17937304 -0.13423833
-0.06587092 -0.17894046 -0.13299331
-0.065609336 -0.17839773 -0.13167769
-0.06532182 -0.17774306 -0.13029149
-0.065342575 -0.17834505 -0.12981953
-0.06510563 -0.1778885 -0.12859172
-0.06481771 -0.17721657 -0.12722047
-0.06483823 -0.17781167 -0.12675391
-0.06457544 -0.1772341 -0.12546556
-0.06431242 -0.17664962 -0.12418258
-0.0643327 -0.17723781 -0.12372144
-0.06404352 -0.17653543 -0.12237263
-0.06377989 -0.17593342 -0.12110345
-0.06351604 -0.17532448 -0.11983969
-0.06353595 -0.17590202 -0.119386904
-0.063297555 -0.17539158 -0.11820426
-0.06300727 -0.17465658 -0.116881035
-0.06302695 -0.17522722 -0.11643366
-0.062813535 -0.17480883 -0.11533513
-0.062523276 -0.17405872 -0.114027746
-0.06254273 -0.17462279 -0.11358553
-0.06230289 -0.1740786 -0.11242728
-0.06203726 -0.1734185 -0.11120359
-0.06179729 -0.17286281 -0.1100563
-0.0618164 -0.17341715 -0.10962172
-0.061550528 -0.17274158 -0.108412236
-0.061335277 -0.17227918 -0.10734591
-0.06135417 -0.17282724 -0.10691624
-0.061087705 -0.172135 -0.10571975
-0.06089793 -0.17177102 -0.10473455
-0.060916618 -0.17231311 -0.10430957
-0.06067527 -0.17171694 -0.10319403
-0.060486056 -0.17134422 -0.102221884
-0.060321696 -0.17107657 -0.101319596
-0.060340114 -0.17161079 -0.10090077
-0.060150478 -0.17122583 -0.0999382
-0.060012132 -0.17106374 -0.09911352
-0.060030393 -0.17159359 -0.098698124
-0.059892178 -0.17142731 -0.09787871
-0.059728403 -0.17114389 -0.096996896
-0.05974653 -0.17166966 -0.09658469
-0.059607998 -0.17149371 -0.09577292
-0.059495445 -0.17143124 -0.095030464
-0.05940857 -0.17148165 -0.09435566
-0.059426535 -0.17200272 -0.09394715
-0.059313726 -0.17193271 -0.09321057
-0.059201155 -0.17186119 -0.09247735
-0.059219006 -0.17237912 -0.092071295
-0.059157945 -0.17253794 -0.091469735
-0.059071705 -0.1725804 -0.09080771
-0.05908949 -0.17309615 -0.09040337
-0.059002396 -0.17313157 -0.089742534
-0.058941077 -0.17328317 -0.08914663
-0.058854204 -0.17331555 -0.088490345
-0.05887186 -0.17382784 -0.08808872
-0.058784854 -0.17385653 -0.08743542
-0.058697764 -0.17388274 -0.08678408
-0.05871534 -0.17439254 -0.086384416
-0.058654062 -0.1745356 -0.08579757
-0.05859274 -0.17467688 -0.08521225
-0.05850504 -0.17469336 -0.0845665
-0.05852251 -0.17520002 -0.084169276
-0.058461476 -0.17533849 -0.08358899
-0.058373645 -0.17534938 -0.08294808
-0.058391042 -0.17585386 -0.08255258
-0.058303114 -0.17586121 -0.0819147
-0.058189213 -0.17574354 -0.08121947
-0.058206506 -0.1762452 -0.08082618
-0.058119025 -0.17624907 -0.08019496
-0.057978194 -0.17599699 -0.07944529
-0.05791739 -0.17612351 -0.07887896
-0.05793454 -0.17662111 -0.07848885
-0.05779454 -0.17636591 -0.07774829
-0.05776105 -0.1766189 -0.07724737
-0.05777812 -0.17711404 -0.07685918
-0.057663828 -0.17697601 -0.07618209
-0.057577524 -0.17697063 -0.07556895
-0.057594497 -0.177463 -0.07518295
-0.057428975 -0.17707035 -0.074401155
-0.057293188 -0.17681867 -0.07368726
-0.0571309 -0.17643487 -0.07291954
-0.057147663 -0.17692116 -0.072538294
-0.057042416 -0.17681096 -0.071897395
-0.05696249 -0.1768224 -0.07131259
-0.056979164 -0.17730609 -0.07093338
-0.05707191 -0.17816387 -0.07071373
-0.0570268 -0.17834392 -0.07020478
-0.05704348 -0.17882779 -0.06982543
-0.056904204 -0.17854004 -0.069123626
-0.056642856 -0.17764412 -0.06817384
-0.056674667 -0.1781989 -0.06782983
-0.056691185 -0.17867786 -0.067454346
-0.056255903 -0.17690398 -0.06616299
-0.055713747 -0.1745873 -0.06466509
-0.055729847 -0.17505434 -0.06429893
-0.055878874 -0.17618807 -0.06419822
-0.24767545 -0.27993232 -1.304641
-0.2477819 -0.28301945 -1.3022208
-0.24178848 -0.2779533 -1.265203
-0.2386489 -0.27658302 -1.2444937
-0.2361308 -0.27597702 -1.2273778
-0.23623174 -0.27890489 -1.2250824
-0.23395461 -0.27853352 -1.2094225
-0.2314714 -0.27781367 -1.1926694
-0.23157008 -0.28067565 -1.1904258
-0.22924855 -0.28008828 -1.1746751
-0.22688659 -0.2793817 -1.1587621
-0.22698303 -0.28217894 -1.1565691
-0.22465049 -0.2814225 -1.1409147
-0.22227144 -0.28053626 -1.1250657
-0.22009468 -0.27988902 -1.1103967
-0.22018784 -0.28259122 -1.1082782
-0.21781425 -0.2815605 -1.092616
-0.21545623 -0.28049177 -1.0771029
-0.21554716 -0.28312898 -1.0750353
-0.2133405 -0.28220293 -1.0604416
-0.21116807 -0.281273 -1.0460931
-0.2112569 -0.28384995 -1.0440727
-0.20915082 -0.28294072 -1.0301703
-0.20686835 -0.2816944 -1.0153717
-0.2048713 -0.28084952 -1.0021712
-0.20495713 -0.28333881 -1.0002196
-0.2031567 -0.28273827 -0.9881536
-0.20115696 -0.2817619 -0.97506934
-0.20124097 -0.28419894 -0.9731587
-0.19969465 -0.28390455 -0.9625678
-0.19758566 -0.28262025 -0.9490302
-0.19766794 -0.28500706 -0.947159
-0.19548078 -0.28350753 -0.9332916
-0.19259891 -0.28075376 -0.9158184
-0.17486197 -0.25212172 -0.82027394
-0.17493382 -0.25420603 -0.8186399
-0.14975618 -0.21180642 -0.684817
-0.14232273 -0.20026502 -0.6443046
-0.14237979 -0.20192018 -0.6430069
-0.13707668 -0.19393417 -0.6138501
-0.13218565 -0.18656291 -0.5869652
-0.13223808 -0.1880832 -0.58577335
-0.12804754 -0.18181573 -0.5626893
-0.12597391 -0.17935583 -0.5506079
-0.12467145 -0.17827827 -0.54253936
-0.12472039 -0.17969766 -0.5414266
-0.12370981 -0.17912059 -0.5349003
-0.12279 -0.17868982 -0.52886325
-0.12283803 -0.18008277 -0.52777123
