ply
format ascii 1.0
element vertex 1364
property float x
property float y
property float z
end_header
-0.14695266 -0.4681236 -0.3701669
-0.14584833 -0.46712163 -0.3682878
-0.14456065 -0.46576014 -0.3661166
-0.14318465 -0.4642104 -0.3638062
-0.1429845 -0.46484178 -0.36338207
-0.14175458 -0.46352938 -0.3613095
-0.14057583 -0.46229148 -0.3593211
-0.14038005 -0.46290907 -0.3589062
-0.13920943 -0.4616542 -0.35693416
-0.13813487 -0.4605632 -0.35511762
-0.1371114 -0.4595518 -0.35338464
-0.13692151 -0.4601508 -0.35298228
-0.13585553 -0.4590277 -0.35118446
-0.1350252 -0.4583507 -0.34976375
-0.13483869 -0.45893908 -0.3493685
-0.13396592 -0.45815518 -0.34788263
-0.1333245 -0.45782083 -0.3467658
-0.13314053 -0.4584012 -0.3463759
-0.13245866 -0.45796874 -0.34519655
-0.13204816 -0.45807981 -0.34444833
-0.13154913 -0.45800352 -0.3435605
-0.13136749 -0.45857653 -0.3431756
-0.13091564 -0.45858714 -0.3423635
-0.1305106 -0.4586894 -0.34162602
-0.13033007 -0.45925888 -0.34124348
-0.12992585 -0.4593548 -0.34050807
-0.12956785 -0.45954376 -0.3398461
-0.12938823 -0.46011037 -0.3394655
-0.12907474 -0.4603887 -0.33887422
-0.12876298 -0.46066755 -0.33828598
-0.12840758 -0.46084812 -0.3376296
-0.12822899 -0.4614115 -0.33725113
-0.12800585 -0.4618768 -0.33680278
-0.1276522 -0.462052 -0.33615002
-0.1274741 -0.46261376 -0.33577263
-0.1272955 -0.4631744 -0.33539444
-0.12703067 -0.46354085 -0.33488145
-0.1268528 -0.464102 -0.33450451
-0.12658758 -0.46446428 -0.33399126
-0.12636659 -0.46492556 -0.3335472
-0.1261026 -0.4652867 -0.33303624
-0.12592521 -0.46584624 -0.33266038
-0.12566185 -0.4662055 -0.33215073
-0.12539937 -0.46656463 -0.33164272
-0.1252224 -0.4671229 -0.33126768
-0.12500174 -0.46757773 -0.3308249
-0.12478278 -0.4680354 -0.33038485
-0.12460602 -0.46859303 -0.3300103
-0.12434398 -0.46894532 -0.32950374
-0.12408335 -0.46929872 -0.32899964
-0.12382314 -0.46965095 -0.32849643
-0.12364699 -0.47020665 -0.32812315
-0.123386905 -0.47055572 -0.32762042
-0.12316911 -0.4710072 -0.3271831
-0.12299326 -0.47156194 -0.32681048
-0.12273351 -0.47190666 -0.32630885
-0.12251573 -0.4723547 -0.3258719
-0.12234019 -0.47290847 -0.32549992
-0.122041106 -0.47314793 -0.3249385
-0.12174267 -0.4733855 -0.32437846
-0.12152538 -0.47382838 -0.3239429
-0.12135054 -0.47437987 -0.32357243
-0.12105344 -0.47461334 -0.32301518
-0.120797195 -0.47495016 -0.32252064
-0.120622866 -0.4755001 -0.3221512
-0.12028593 -0.47562 -0.32153416
-0.1199498 -0.47573736 -0.3209188
-0.119776286 -0.4762847 -0.3205511
-0.11944136 -0.47639817 -0.31993833
-0.119148284 -0.47661993 -0.3193895
-0.11885511 -0.4768379 -0.3188409
-0.118682615 -0.47738206 -0.31847537
-0.11839035 -0.47759712 -0.31792867
-0.11801984 -0.4775924 -0.31726417
-0.11784816 -0.478134 -0.31690034
-0.117477424 -0.47811964 -0.31623644
-0.11710857 -0.47810447 -0.31557596
-0.116937906 -0.47864285 -0.3152143
-0.11657148 -0.47862542 -0.31455842
-0.1162453 -0.47871682 -0.3139636
-0.115802504 -0.4784686 -0.31319433
-0.115633465 -0.47900185 -0.31283614
-0.11519189 -0.47874436 -0.31207007
-0.11482945 -0.478709 -0.31142318
-0.11466163 -0.47923845 -0.31106755
-0.114224404 -0.4789732 -0.31031007
-0.11382628 -0.4788153 -0.30961174
-0.11365978 -0.47934055 -0.3092589
-0.11322518 -0.479062 -0.3085075
-0.11282818 -0.478888 -0.30781284
-0.112282984 -0.47825724 -0.30689916
-0.11211882 -0.4787751 -0.30655128
-0.11150184 -0.47790545 -0.30553332
-0.11092097 -0.4771319 -0.30457026
-0.11075915 -0.4776424 -0.30422732
-0.110073075 -0.47652003 -0.30311134
-0.1093866 -0.47537857 -0.30199656
-0.10922761 -0.47588012 -0.30165964
-0.10847308 -0.4744961 -0.30044764
-0.10775558 -0.47320944 -0.29929212
-0.107007466 -0.47180533 -0.29809374
-0.10685326 -0.47229177 -0.29776695
-0.10607186 -0.47074887 -0.29652306
-0.105367266 -0.4694337 -0.29539365
-0.105216324 -0.46990988 -0.29507378
-0.1044809 -0.46846375 -0.29390246
-0.10385369 -0.4673545 -0.29289076
-0.10323266 -0.46624854 -0.29188982
-0.10308599 -0.46671122 -0.291579
-0.10250409 -0.465711 -0.2906374
-0.101960704 -0.4648249 -0.28975323
-0.10181637 -0.4652802 -0.28944737
-0.101350784 -0.4646378 -0.28867775
-0.10081572 -0.46374476 -0.2878092
-0.100673415 -0.46419367 -0.28750765
-0.10024581 -0.46365166 -0.28679588
-0.09968165 -0.462622 -0.28588915
-0.09926009 -0.46207684 -0.28518856
-0.099120624 -0.46251678 -0.284893
-0.09859355 -0.4615808 -0.28404322
-0.098110884 -0.46078837 -0.28325838
-0.09797354 -0.4612216 -0.28296733
-0.09751799 -0.46050668 -0.2822232
-0.097131364 -0.46002927 -0.28157836
-0.096995674 -0.46045732 -0.28129083
-0.0964824 -0.45950028 -0.28046796
-0.0960787 -0.45893222 -0.27980176
-0.09560038 -0.45807648 -0.27903122
-0.09546761 -0.45849532 -0.27874988
-0.09500942 -0.45769393 -0.27800986
-0.094503306 -0.4566985 -0.27720383
-0.09437263 -0.45711073 -0.2769269
-0.093971565 -0.45649233 -0.27627063
-0.09353284 -0.45571822 -0.27556276
-0.0934039 -0.45612496 -0.27528954
-0.092788756 -0.4546476 -0.27433732
-0.092087045 -0.45281217 -0.27326655
-0.091607936 -0.4518242 -0.2725082
-0.0914833 -0.45221734 -0.27224407
-0.090660155 -0.44984344 -0.27101067
-0.089950755 -0.44789213 -0.26993802
-0.08983007 -0.44827282 -0.2696823
-0.08959401 -0.44818884 -0.26926723
-0.6552025 -0.5823872 -1.263103
-0.65425944 -0.58536214 -1.2611046
-0.64175045 -0.5826441 -1.2390772
-0.6294209 -0.5798832 -1.2173744
-0.6285138 -0.5827446 -1.2154523
-0.6154738 -0.57942533 -1.1925415
-0.6045375 -0.5770498 -1.1732835
-0.60366535 -0.5798011 -1.1714352
-0.5926423 -0.5772051 -1.1520458
-0.58352834 -0.5755077 -1.1359669
-0.575076 -0.5740699 -1.1210406
-0.574245 -0.5766914 -1.1192796
-0.56580186 -0.5751247 -1.1043833
-0.5573523 -0.5734646 -1.0894856
-0.55654556 -0.5760095 -1.0877761
-0.5478242 -0.5740593 -1.0724243
-0.5400172 -0.5725397 -1.058658
-0.53923434 -0.57500935 -1.056999
-0.5315342 -0.5734263 -1.0434301
-0.5241798 -0.57196474 -1.0304651
-0.51783156 -0.5710254 -1.0192397
-0.5170794 -0.57339823 -1.0176457
-0.51292896 -0.573698 -1.0102094
-0.4943404 -0.56506044 -0.9779649
-0.49362257 -0.5673249 -0.9764437
-0.34270886 -0.47520837 -0.716998
-0.33027652 -0.46911559 -0.69546586
-0.32982197 -0.4705495 -0.69450265
-0.32199576 -0.46721464 -0.6808949
-0.31640083 -0.46524552 -0.67112267
-0.31286597 -0.46457046 -0.66488814
-0.31243694 -0.46592385 -0.663979
-0.309494 -0.4655882 -0.6587644
-0.30703247 -0.46554744 -0.6543774
-0.3066109 -0.46687725 -0.6534841
-0.3039829 -0.4666828 -0.64881635
-0.30157015 -0.4666103 -0.6445196
-0.30115554 -0.46791822 -0.64364105
-0.2988845 -0.4679082 -0.6395906
-0.2967395 -0.4679646 -0.6357579
-0.2946092 -0.4680093 -0.6319527
-0.29420343 -0.46928936 -0.6310928
-0.29218093 -0.46937993 -0.6274751
-0.2903136 -0.46956465 -0.6241241
-0.28991297 -0.47082847 -0.62327516
-0.288035 -0.47097647 -0.6199091
-0.287736 -0.47230804 -0.61923426
-0.29027396 -0.47582114 -0.6233889
-0.2898707 -0.4770933 -0.6225343
-0.28420794 -0.47425377 -0.61273354
-0.23924612 -0.44035995 -0.5361218
-0.23892714 -0.44136617 -0.53544587
-0.22198917 -0.42904708 -0.506537
-0.21730474 -0.42641178 -0.49845988
-0.21702145 -0.4273054 -0.49785957
-0.2144988 -0.4263581 -0.4934598
-0.21219666 -0.42556313 -0.4894372
-0.2102651 -0.42505026 -0.48604578
-0.20999193 -0.42591196 -0.48546693
-0.20841771 -0.42566854 -0.4826843
-0.2069658 -0.42551196 -0.48011076
-0.20669691 -0.4263602 -0.47954097
-0.20524822 -0.42618185 -0.47697544
-0.20369469 -0.42589512 -0.47423437
-0.20343006 -0.42672992 -0.4736736
-0.20176001 -0.42631236 -0.4707386
-0.20020998 -0.42598274 -0.4680083
-0.19866921 -0.42564335 -0.46529564
-0.1984115 -0.42645636 -0.46474952
-0.19699037 -0.42619973 -0.46224147
-0.19568942 -0.42603785 -0.4599378
-0.19543557 -0.42683864 -0.45939985
-0.19414015 -0.42665944 -0.45710784
-0.19284943 -0.42646968 -0.45482534
-0.19259924 -0.42725894 -0.45429516
-0.191427 -0.42716062 -0.45221436
-0.19014521 -0.42694265 -0.44995078
-0.1889787 -0.4268222 -0.4478825
-0.1887336 -0.42759538 -0.4473631
-0.18746072 -0.4273492 -0.4451185
-0.1861905 -0.42709038 -0.44287992
-0.18594906 -0.42785203 -0.44236827
-0.18457168 -0.42746168 -0.43995246
-0.18330975 -0.42717233 -0.43773192
-0.18307218 -0.4279218 -0.43722847
-0.18181682 -0.42761615 -0.43502134
-0.18056627 -0.4273002 -0.43282396
-0.17931828 -0.42697158 -0.4306324
-0.17908618 -0.4277037 -0.4301406
-0.17784503 -0.4273592 -0.427963
-0.17671697 -0.4271207 -0.42597586
-0.17648834 -0.42784193 -0.42549136
-0.1752564 -0.4274695 -0.42333314
-0.17413643 -0.4272044 -0.42136326
-0.17391126 -0.4279147 -0.4208861
-0.17268671 -0.42751235 -0.41874424
-0.17135684 -0.42697623 -0.41642871
-0.1703591 -0.42679772 -0.4146677
-0.17013922 -0.42749137 -0.41420174
-0.16892722 -0.42704913 -0.41208652
-0.16782692 -0.4267199 -0.41015854
-0.1676105 -0.42740265 -0.40969992
-0.16651708 -0.42706028 -0.4077856
-0.16553824 -0.42683867 -0.4060629
-0.16532485 -0.4275118 -0.40561074
-0.16456446 -0.42753235 -0.404252
-0.16413446 -0.42794076 -0.4034415
-0.16359878 -0.42821792 -0.4024564
-0.16338743 -0.42888463 -0.40200853
-0.16328439 -0.42968404 -0.40173978
-0.16318095 -0.43048477 -0.40147018
-0.1629692 -0.4311528 -0.40102145
-0.16318531 -0.43235585 -0.4012792
-0.1635097 -0.43370238 -0.4017149
-0.16329612 -0.43437612 -0.40126228
-0.16383116 -0.43600488 -0.4020438
-0.16436352 -0.43764284 -0.4028195
-0.16478953 -0.43915603 -0.4034188
-0.16457188 -0.4398426 -0.4029576
-0.16498815 -0.44135943 -0.4035391
-0.16550808 -0.44302374 -0.40428984
-0.1652878 -0.44371864 -0.40382305
-0.16559817 -0.44512224 -0.40422767
-0.16579832 -0.44638687 -0.4044504
-0.1655762 -0.44708756 -0.4039797
-0.16577385 -0.44835982 -0.4041972
-0.16596721 -0.44963354 -0.40440685
-0.16616417 -0.45091954 -0.4046216
-0.16593961 -0.45162794 -0.40414575
-0.16623561 -0.4530635 -0.4045213
-0.1666334 -0.45465142 -0.4050623
-0.1664066 -0.45536688 -0.4045817
-0.16669706 -0.45681867 -0.4049456
-0.16708855 -0.45842466 -0.40547347
-0.16685952 -0.45914716 -0.40498814
-0.16734995 -0.46091348 -0.40567544
-0.16763164 -0.46238816 -0.40602133
-0.16811606 -0.46417004 -0.40669626
-0.16788317 -0.46490473 -0.40620273
-0.16794978 -0.4660849 -0.4061962
-0.16762652 -0.46668708 -0.40555555
-0.16739321 -0.46742308 -0.40506113
-0.167471 -0.46863052 -0.40507168
-0.16732913 -0.46950883 -0.40472528
-0.16649014 -0.4693193 -0.4032486
-0.16625725 -0.470054 -0.40275508
-0.16542423 -0.46985665 -0.40128997
-0.16448915 -0.4694883 -0.39966092
-0.16425888 -0.47021466 -0.39917296
-0.1637282 -0.4704658 -0.39819956
-0.16279937 -0.47007746 -0.39658374
-0.16257115 -0.47079742 -0.3961001
-0.16174911 -0.4705608 -0.3946587
-0.161122 -0.4706285 -0.39353275
-0.16030282 -0.47037512 -0.39209828
-0.16007785 -0.4710848 -0.39162156
-0.159261 -0.4708178 -0.39019266
-0.15844528 -0.47054088 -0.38876683
-0.15822275 -0.47124287 -0.38829526
-0.15741207 -0.47095662 -0.38687938
-0.15660378 -0.47066265 -0.38546863
-0.1563837 -0.47135696 -0.38500223
-0.15538429 -0.47071823 -0.38328713
-0.15458095 -0.47040108 -0.3818877
-0.15358755 -0.46974295 -0.38018534
-0.15337195 -0.47042313 -0.37972844
-0.1523816 -0.46974635 -0.37803358
-0.15139623 -0.4690624 -0.37634835
-0.15118387 -0.46973228 -0.37589833
-0.15001145 -0.46869072 -0.3739173
-0.14884406 -0.46763808 -0.3719465
-0.14863577 -0.46829516 -0.37150514
-0.14756891 -0.46739456 -0.3696975
-0.1463163 -0.46613678 -0.36759645
-0.14516136 -0.46503597 -0.36565292
-0.14495918 -0.46567377 -0.36522448
-0.14371666 -0.4643798 -0.36314532
-0.14257298 -0.4632479 -0.36122525
-0.14237508 -0.46387222 -0.36080584
-0.14123745 -0.462721 -0.3588986
-0.14005782 -0.46146935 -0.3569271
-0.13986409 -0.46208054 -0.35651654
-0.13887587 -0.46116439 -0.3548509
-0.13779879 -0.46005878 -0.35304677
-0.13686496 -0.45921206 -0.35147077
-0.1366765 -0.45980656 -0.35107142
-0.13570236 -0.45885554 -0.34943458
-0.1348682 -0.4581637 -0.34801993
-0.13468291 -0.45874825 -0.34762725
-0.13399306 -0.45832315 -0.34644175
-0.13325961 -0.45779875 -0.34518895
-0.13307664 -0.45837593 -0.34480122
-0.13257405 -0.4583025 -0.34391242
-0.13207372 -0.45822626 -0.3430279
-0.13166408 -0.45832935 -0.34228614
-0.13148305 -0.45890045 -0.34190252
-0.13103119 -0.4589076 -0.34109566
-0.13066946 -0.45909715 -0.3404302
-0.13048944 -0.459665 -0.34004873
-0.13013023 -0.4598534 -0.3393879
-0.12977235 -0.46004036 -0.33872956
-0.12959315 -0.46060568 -0.33834982
-0.12927996 -0.4608824 -0.33776167
-0.12892285 -0.46106082 -0.33710566
-0.12865545 -0.46143022 -0.33658937
-0.12847716 -0.46199268 -0.33621156
-0.12816614 -0.46226278 -0.335628
-0.12789989 -0.4626287 -0.33511412
-0.1277221 -0.46318954 -0.33473736
-0.12754378 -0.46374917 -0.33435982
-0.12723501 -0.46401495 -0.33378074
-0.12705754 -0.4645748 -0.33340466
-0.12683593 -0.4650342 -0.3329605
-0.12657149 -0.46539432 -0.3324505
-0.1263509 -0.4658532 -0.3320082
-0.12617382 -0.4664118 -0.33163297
-0.12591033 -0.46676916 -0.33112493
-0.12564723 -0.46712518 -0.33061776
-0.12547056 -0.46768248 -0.33024338
-0.1252934 -0.4682385 -0.32986826
-0.124989346 -0.4684925 -0.32929882
-0.12481298 -0.46904886 -0.3289251
-0.12459298 -0.46950012 -0.32848468
-0.124290265 -0.46975008 -0.32791808
-0.12402954 -0.47009876 -0.3274159
-0.12385379 -0.47065318 -0.32704347
-0.12363643 -0.4711052 -0.32660767
-0.12341758 -0.47155237 -0.32616976
-0.123242036 -0.47210616 -0.32579777
-0.122941405 -0.472347 -0.32523584
-0.1226826 -0.4726896 -0.32473776
-0.1224236 -0.47302938 -0.3242396
-0.12224876 -0.4735809 -0.3238691
-0.122032456 -0.47402638 -0.3234359
-0.12169282 -0.4741536 -0.3228165
-0.1215185 -0.47470352 -0.3224471
-0.12126183 -0.4750394 -0.3219535
-0.12096385 -0.4752649 -0.32139796
-0.120790035 -0.47581324 -0.3210296
-0.12045344 -0.4759314 -0.32041657
-0.12011627 -0.47604337 -0.31980315
-0.11982202 -0.4762652 -0.31925464
-0.11964932 -0.47680998 -0.3188887
-0.119314834 -0.47691786 -0.3182805
-0.11902234 -0.477135 -0.31773564
-0.11885036 -0.47767752 -0.3173712
-0.11847764 -0.4776691 -0.31670716
-0.1181442 -0.477763 -0.3161023
-0.11797313 -0.47830266 -0.31573978
-0.11756473 -0.47818005 -0.31502423
-0.1171965 -0.478163 -0.3143691
-0.11686796 -0.4782518 -0.31377357
-0.11669841 -0.47878668 -0.31341428
-0.11625369 -0.47853687 -0.31264743
-0.115770094 -0.4781671 -0.311824
-0.11560206 -0.47869715 -0.31146792
-0.11523832 -0.4786599 -0.31082293
-0.11479858 -0.4783951 -0.31006658
-0.114631765 -0.47892132 -0.3097131
-0.11426885 -0.47886977 -0.3090711
-0.11379379 -0.4784799 -0.308265
-0.11335684 -0.47819355 -0.30751592
-0.113192074 -0.47871333 -0.30716676
-0.11260689 -0.47796744 -0.30620202
-0.112021595 -0.4772075 -0.30523857
-0.11185906 -0.47772026 -0.30489415
-0.11127607 -0.4769465 -0.30393627
-0.11058459 -0.475825 -0.3028218
-0.110424586 -0.47632974 -0.30248272
-0.10973399 -0.47518438 -0.30137238
-0.10897193 -0.47379768 -0.30016017
-0.10824955 -0.47251517 -0.29900768
-0.10809413 -0.47300544 -0.2986783
-0.10730507 -0.471482 -0.29743245
-0.10658917 -0.47017047 -0.2962946
-0.106437 -0.4706505 -0.29597214
-0.1056909 -0.46921203 -0.2947939
-0.104986176 -0.46788713 -0.29367742
-0.10483716 -0.46835724 -0.29336163
-0.1041704 -0.46712756 -0.29230273
-0.10358115 -0.46613526 -0.29135692
-0.10303106 -0.46525705 -0.2904688
-0.10288581 -0.46571523 -0.29016104
-0.10227007 -0.4645949 -0.28918156
-0.10183634 -0.4640714 -0.2884634
-0.10169322 -0.46452287 -0.28816012
-0.10115512 -0.46362743 -0.28729525
-0.100724615 -0.46308628 -0.28658473
-0.100583434 -0.46353164 -0.28628555
-0.10004789 -0.46261021 -0.285428
-0.099626034 -0.46207017 -0.2847328
-0.099091806 -0.46112558 -0.28388005
-0.09895367 -0.46156135 -0.28358734
-0.09846755 -0.46076456 -0.28280473
-0.09800753 -0.46004722 -0.28206027
-0.09787132 -0.4604769 -0.28177163
-0.097485654 -0.46000847 -0.28113332
-0.09696759 -0.45905092 -0.2803108
-0.09683322 -0.45947483 -0.28002608
-0.096420616 -0.45888048 -0.2793531
-0.09590671 -0.45790228 -0.27854022
-0.09544589 -0.45710522 -0.2778028
-0.09531442 -0.45751998 -0.27752417
-0.09483681 -0.45664006 -0.27676558
-0.09443582 -0.4560342 -0.27611455
-0.09430617 -0.4564432 -0.27583984
-0.09384794 -0.45560288 -0.27511162
-0.09321688 -0.45408833 -0.2741467
-0.09308972 -0.45448947 -0.27387723
-0.092384145 -0.45265517 -0.27281335
-0.09188922 -0.4516149 -0.27204087
-0.09105489 -0.4492327 -0.27080545
-0.090932734 -0.44961804 -0.27054662
-0.09022856 -0.44770414 -0.26949367
-0.089918576 -0.44733077 -0.26898032
-0.08979878 -0.44770867 -0.26872647
-0.6558527 -0.5829098 -1.256735
-0.64373904 -0.5804335 -1.2355254
-0.64281696 -0.5833423 -1.2335714
-0.6301979 -0.5804237 -1.2115141
-0.61752754 -0.57734585 -1.1893833
-0.6166421 -0.5801391 -1.1875069
-0.6060268 -0.57791793 -1.1689265
-0.5949791 -0.5753593 -1.1496161
-0.5859433 -0.5737431 -1.1337701
-0.5851019 -0.5763973 -1.1319872
-0.57633287 -0.57478225 -1.1166142
-0.5680665 -0.5733484 -1.1021127
-0.56724936 -0.5759261 -1.1003811
-0.5587537 -0.57423395 -1.0855014
-0.5504684 -0.5725696 -1.0709915
-0.5496753 -0.57507145 -1.0693109
-0.54178864 -0.573503 -1.0554975
-0.53392744 -0.571865 -1.041737
-0.5270576 -0.5707232 -1.0296798
-0.5262968 -0.5731231 -1.0280677
-0.5195717 -0.5719581 -1.0162699
-0.51339763 -0.571054 -1.0054206
-0.5126551 -0.57339627 -1.0038471
-0.44253382 -0.5330137 -0.8839285
-0.34108165 -0.47230276 -0.71067953
-0.34061342 -0.47377977 -0.70968735
-0.33105353 -0.46949154 -0.69320494
-0.32382932 -0.46658716 -0.68071276
-0.31872115 -0.46496716 -0.6718321
-0.3182862 -0.4663393 -0.67091036
-0.31448343 -0.46549267 -0.66425973
-0.31151786 -0.4651609 -0.65903735
-0.31109253 -0.46650267 -0.658136
-0.30838796 -0.46630016 -0.6533622
-0.30595604 -0.4662555 -0.6490546
-0.30553773 -0.46757507 -0.6481682
-0.30299982 -0.4674185 -0.64368486
-0.3007167 -0.46741414 -0.6396367
-0.29856044 -0.46747595 -0.6358063
-0.29815158 -0.46876574 -0.6349399
-0.2960047 -0.4688008 -0.63112897
-0.29397318 -0.46889758 -0.62751585
-0.2935699 -0.4701698 -0.62666124
-0.29146084 -0.47017762 -0.62292045
-0.28941327 -0.4702092 -0.6192861
-0.28901556 -0.47146383 -0.6184433
-0.28765824 -0.47198838 -0.6159789
-0.28928307 -0.47478873 -0.61855316
-0.2863356 -0.47407696 -0.61340445
-0.28594038 -0.47532368 -0.61256695
-0.25738305 -0.4544019 -0.56422
-0.2241708 -0.42941067 -0.5080646
-0.2238784 -0.43033308 -0.50744504
-0.21821928 -0.42692354 -0.4977835
-0.21565376 -0.42595986 -0.49333975
-0.2153743 -0.4268414 -0.49274758
-0.21295832 -0.4259552 -0.48856044
-0.21111432 -0.4255172 -0.48533854
-0.20941804 -0.42518204 -0.4823673
-0.20914732 -0.42603606 -0.4817936
-0.2076895 -0.4258755 -0.47922602
-0.20612045 -0.42560282 -0.47647354
-0.20585398 -0.4264434 -0.4759089
-0.20440587 -0.4262496 -0.47336224
-0.20272587 -0.42583477 -0.4704286
-0.20246388 -0.42666122 -0.4698734
-0.20090702 -0.4263271 -0.46714926
-0.19935955 -0.4259833 -0.46444282
-0.19804606 -0.4258344 -0.46212995
-0.19779038 -0.42664096 -0.46158814
-0.19636829 -0.42636916 -0.45909616
-0.1950655 -0.42619196 -0.45680535
-0.19481367 -0.42698634 -0.4562717
-0.19351637 -0.42679176 -0.45399258
-0.19233868 -0.42669618 -0.45191464
-0.19209032 -0.42747965 -0.45138836
-0.19080196 -0.42725685 -0.44912815
-0.18951727 -0.4270225 -0.4468757
-0.18835136 -0.4268897 -0.4448228
-0.1881083 -0.42765647 -0.44430768
-0.1868325 -0.42739385 -0.44207415
-0.18544693 -0.42700574 -0.43965966
-0.18520772 -0.42776036 -0.43915275
-0.18405332 -0.42758235 -0.43712518
-0.18267865 -0.42716467 -0.4347333
-0.18244311 -0.42790774 -0.43423414
-0.18118706 -0.427588 -0.43204188
-0.17993364 -0.42725566 -0.4298556
-0.178797 -0.42703128 -0.42786464
-0.17856674 -0.42775765 -0.4273767
-0.17743501 -0.4275179 -0.42539608
-0.17619406 -0.4271465 -0.42323622
-0.17596725 -0.42786196 -0.4227556
-0.17484389 -0.42759597 -0.42079273
-0.17361005 -0.4271943 -0.41864878
-0.17249322 -0.42690688 -0.41669983
-0.1722715 -0.4276063 -0.41623
-0.17104827 -0.42717823 -0.41410777
-0.16993976 -0.4268645 -0.41217646
-0.1697215 -0.42755303 -0.41171396
-0.16872665 -0.42734894 -0.40997216
-0.16773652 -0.427138 -0.40823948
-0.16752112 -0.42781752 -0.40778303
-0.16664729 -0.42772448 -0.40624365
-0.16599171 -0.42787883 -0.40506423
-0.16577828 -0.42855188 -0.404612
-0.16556491 -0.42922497 -0.40415984
-0.16491881 -0.4293764 -0.4029975
-0.16492225 -0.43030915 -0.40290138
-0.16470928 -0.43098098 -0.40245005
-0.16482237 -0.43205386 -0.402533
-0.16504002 -0.4332616 -0.40278652
-0.16482562 -0.4339379 -0.40233222
-0.16525933 -0.43542746 -0.40293804
-0.16569346 -0.43692827 -0.40354332
-0.16622984 -0.43856996 -0.40431455
-0.16601159 -0.4392585 -0.40385202
-0.1665408 -0.4409099 -0.40460944
-0.16696312 -0.44243535 -0.4051911
-0.16674222 -0.4431322 -0.404723
-0.16705717 -0.44453293 -0.40512794
-0.1674707 -0.44607323 -0.4056924
-0.16724755 -0.44677714 -0.40521955
-0.16755433 -0.4481908 -0.4056086
-0.16775334 -0.44946834 -0.40582147
-0.16805348 -0.45089036 -0.40619776
-0.16782749 -0.45160326 -0.4057189
-0.16802488 -0.45289788 -0.405927
-0.16832274 -0.4543389 -0.40629727
-0.16809492 -0.45505756 -0.4058145
-0.16849421 -0.4566545 -0.40634745
-0.16889077 -0.45825875 -0.40687484
-0.16866052 -0.45898512 -0.40638688
-0.169053 -0.4606003 -0.40690583
-0.16954653 -0.46237177 -0.4075868
-0.17003635 -0.46415097 -0.40826035
-0.16980202 -0.46489012 -0.4077638
-0.16986485 -0.46606416 -0.40774652
-0.17025235 -0.46772167 -0.408252
-0.17001623 -0.46846655 -0.40775162
-0.16937888 -0.46861327 -0.40660533
-0.16903852 -0.46919808 -0.40593764
-0.1688034 -0.4699398 -0.4054394
-0.16786097 -0.4696073 -0.40380466
-0.16681731 -0.4691069 -0.4020088
-0.16607735 -0.46905822 -0.40070197
-0.16584627 -0.46978715 -0.40021232
-0.1650083 -0.46957156 -0.39874998
-0.16437472 -0.46966448 -0.39761627
-0.16414568 -0.470387 -0.3971309
-0.16321447 -0.46999663 -0.3955224
-0.16238494 -0.46975487 -0.3940779
-0.16215855 -0.47046906 -0.39359814
-0.1615312 -0.47053617 -0.39247832
-0.16070876 -0.4702787 -0.39104813
-0.15988623 -0.47000945 -0.38961905
-0.15966308 -0.47071335 -0.38914618
-0.1588455 -0.47043464 -0.38772696
-0.15803038 -0.4701482 -0.3863129
-0.15780969 -0.47084442 -0.3858452
-0.15699822 -0.4705465 -0.38443893
-0.1560894 -0.47007188 -0.38287935
-0.15587135 -0.47075972 -0.38241726
-0.15496826 -0.47027415 -0.38086906
-0.15406628 -0.4697765 -0.3793241
-0.15297392 -0.468935 -0.3774793
-0.15276055 -0.4696081 -0.37702718
-0.15167372 -0.46874928 -0.37519404
-0.15049553 -0.46771127 -0.3732185
-0.15028602 -0.4683722 -0.37277454
-0.14930409 -0.46765444 -0.371112
-0.14823014 -0.46675533 -0.36930612
-0.14802408 -0.46740532 -0.36886948
-0.14676477 -0.4661422 -0.36677483
-0.1457474 -0.46529883 -0.36506316
-0.14449649 -0.46400908 -0.36298633
-0.14429665 -0.4646395 -0.36256284
-0.14324093 -0.46367893 -0.36079606
-0.14209479 -0.46253094 -0.35888946
-0.14189881 -0.46314916 -0.35847417
-0.1407123 -0.46189404 -0.35650775
-0.13971686 -0.4609807 -0.35484263
-0.13867867 -0.45996806 -0.35311264
-0.1384884 -0.4605683 -0.3527094
-0.13754828 -0.45971754 -0.35113558
-0.13656673 -0.45876944 -0.34949893
-0.13637981 -0.4593591 -0.34910282
-0.135543 -0.45866948 -0.34769455
-0.13480091 -0.45815274 -0.34643522
-0.13461663 -0.45873407 -0.34604472
-0.13383304 -0.4581153 -0.34472302
-0.13337359 -0.45813572 -0.34390604
-0.13282341 -0.45796603 -0.34294903
-0.13264187 -0.45853874 -0.3425643
-0.13227643 -0.45873472 -0.3418948
-0.1318213 -0.45874175 -0.34108695
-0.13164078 -0.45931125 -0.3407044
-0.13127843 -0.4595019 -0.34004095
-0.13087347 -0.45959908 -0.33931217
-0.13069385 -0.46016568 -0.33893156
-0.13037868 -0.46044505 -0.33834204
-0.13001965 -0.46062782 -0.33768535
-0.12966084 -0.46080676 -0.3370295
-0.12948236 -0.4613698 -0.33665124
-0.12921374 -0.4617377 -0.33613458
-0.12890202 -0.4620094 -0.335552
-0.12872402 -0.46257088 -0.33517483
-0.12845711 -0.46293643 -0.33466145
-0.1281906 -0.4633007 -0.3341489
-0.12801303 -0.46386087 -0.33377263
-0.12774715 -0.46422327 -0.3332614
-0.1275252 -0.46468243 -0.33281747
-0.12730345 -0.46514088 -0.332374
-0.12712628 -0.46569976 -0.3319986
-0.12681893 -0.46596056 -0.33142498
-0.12664154 -0.46651727 -0.33104938
-0.12646468 -0.46707523 -0.3306746
-0.12620042 -0.4674297 -0.3301671
-0.12598096 -0.46788675 -0.32972783
-0.1258044 -0.46844372 -0.3293537
-0.12549898 -0.46869567 -0.3287845
-0.12523668 -0.4690469 -0.32828087
-0.124974795 -0.46939683 -0.3277781
-0.124798946 -0.46995154 -0.32740545
-0.12457983 -0.47040161 -0.3269676
-0.12431942 -0.47075 -0.3264676
-0.124143876 -0.4713038 -0.3260956
-0.12388409 -0.47165033 -0.32559693
-0.12362355 -0.47199276 -0.32509738
-0.12344842 -0.47254524 -0.32472625
-0.123189084 -0.47288716 -0.3242289
-0.12288814 -0.47312218 -0.32366946
-0.12262973 -0.4734613 -0.32317406
-0.12245531 -0.47401154 -0.32280445
-0.12223855 -0.47445363 -0.3223716
-0.12194008 -0.47468448 -0.32181704
-0.12176606 -0.47523344 -0.32144827
-0.12142648 -0.47535235 -0.32083306
-0.121129036 -0.47557658 -0.32028103
-0.12095573 -0.4761233 -0.31991377
-0.12061738 -0.4762342 -0.3193016
-0.120321535 -0.4764532 -0.318753
-0.119986214 -0.47656327 -0.31814632
-0.11981402 -0.47710648 -0.31778142
-0.11951989 -0.4773206 -0.31723636
-0.1191857 -0.47742248 -0.3166326
-0.11901422 -0.47796345 -0.3162692
-0.11860054 -0.47784007 -0.31554914
-0.11822834 -0.4778239 -0.3148909
-0.11805797 -0.47836134 -0.31452987
-0.11768731 -0.47834036 -0.3138749
-0.11731965 -0.47832182 -0.31322497
-0.11683241 -0.47796023 -0.31240058
-0.11666387 -0.4784919 -0.31204343
-0.11625637 -0.4783429 -0.31133714
-0.11585213 -0.47819582 -0.31063643
-0.115684815 -0.47872365 -0.31028187
-0.1152421 -0.47845414 -0.30952635
-0.114840105 -0.4782946 -0.30883098
-0.114674106 -0.47881827 -0.30847922
-0.11419697 -0.47842643 -0.30767608
-0.113719106 -0.47802255 -0.30687296
-0.11316754 -0.47738948 -0.30596423
-0.11300418 -0.47790483 -0.30561808
-0.11241569 -0.47714198 -0.30465814
-0.1117909 -0.47625563 -0.30364737
-0.11162988 -0.47676358 -0.30330616
-0.11097153 -0.4757519 -0.3022496
-0.11023819 -0.47449347 -0.30108714
-0.11008001 -0.47499248 -0.30075192
-0.10931444 -0.47360528 -0.29954642
-0.10855088 -0.47220403 -0.298346
-0.10782593 -0.4709035 -0.29720303
-0.10767254 -0.4713874 -0.296878
-0.10695328 -0.47007582 -0.2957463
-0.106200695 -0.46863854 -0.2945693
-0.10605046 -0.46911246 -0.29425097
-0.10534135 -0.46778426 -0.2931391
-0.10470615 -0.46667615 -0.29213417
-0.10407617 -0.465568 -0.2911385
-0.10393011 -0.46602878 -0.29082897
-0.10337685 -0.46514785 -0.28994447
-0.102791645 -0.4641466 -0.2890165
-0.102647915 -0.4646 -0.2887119
-0.10221183 -0.4640744 -0.28799623
-0.10163459 -0.46306294 -0.28708348
-0.10149288 -0.46350998 -0.2867832
-0.10109472 -0.46308413 -0.28612378
-0.10055468 -0.46216345 -0.28526708
-0.100127526 -0.46161634 -0.2845696
-0.09998847 -0.462055 -0.2842749
-0.09945615 -0.46112603 -0.28343278
-0.098995216 -0.4604319 -0.28269154
-0.0988582 -0.46086416 -0.28240117
-0.09833237 -0.45992222 -0.28157198
-0.09794604 -0.45946115 -0.28093746
-0.09781085 -0.45988762 -0.28065097
-0.09731941 -0.4590344 -0.279873
-0.09690234 -0.4584359 -0.27919903
-0.09636059 -0.45737356 -0.27835482
-0.09622841 -0.4577905 -0.27807474
-0.09579112 -0.45708734 -0.27737635
-0.095276624 -0.45608714 -0.27657366
-0.09514647 -0.45649773 -0.27629784
-0.09474502 -0.4558961 -0.2756519
-0.09431203 -0.45516515 -0.2749642
-0.09418356 -0.45557043 -0.27469197
-0.09353726 -0.45401195 -0.27371678
-0.09282499 -0.4521804 -0.27265447
-0.0923095 -0.45107898 -0.2718611
-0.09218547 -0.45147023 -0.27159828
-0.091350324 -0.44910526 -0.27037656
-0.090617195 -0.4471078 -0.26929548
-0.09049714 -0.44748652 -0.2690411
-0.09014039 -0.44693264 -0.26846915
-0.6573526 -0.5804374 -1.2522594
-0.65641683 -0.58338946 -1.2502763
-0.64367497 -0.5805901 -1.2281328
-0.63180923 -0.5780893 -1.2074999
-0.6309087 -0.5809301 -1.2055916
-0.6186616 -0.5780508 -1.1843292
-0.6080668 -0.5758845 -1.1658987
-0.607199 -0.57862204 -1.1640598
-0.5965761 -0.5762744 -1.1456002
-0.58739346 -0.57457364 -1.1296062
-0.57820415 -0.5727732 -1.1136119
-0.57737774 -0.57538027 -1.1118606
-0.5692964 -0.57403785 -1.0977675
-0.56092894 -0.57245344 -1.0831972
-0.56012577 -0.57498705 -1.0814953
-0.5517108 -0.57324344 -1.0668594
-0.54369503 -0.57163703 -1.0529118
-0.54291534 -0.5740966 -1.0512595
-0.5349276 -0.5723784 -1.0373738
-0.52905697 -0.5718143 -1.0270895
-0.5221708 -0.5705887 -1.0150898
-0.52142036 -0.57295597 -1.0134996
-0.512885 -0.5706252 -0.9987178
-0.38386744 -0.4947706 -0.7798714
-0.38333467 -0.49645135 -0.7787423
-0.34138757 -0.4723911 -0.7075215
-0.3325768 -0.4686251 -0.6924164
-0.33212388 -0.4700539 -0.6914566
-0.32534543 -0.46743557 -0.6798042
-0.32032 -0.46587208 -0.6711226
-0.31653094 -0.46505845 -0.66453564
-0.31610104 -0.4664146 -0.66362464
-0.31309602 -0.46605977 -0.6583678
-0.31037784 -0.46586534 -0.6535985
-0.30995584 -0.46719658 -0.65270424
-0.30751377 -0.46714792 -0.6484052
-0.30496135 -0.46699777 -0.64392304
-0.30454612 -0.46830764 -0.6430431
-0.3021372 -0.46821794 -0.6388071
-0.29996568 -0.46827114 -0.63497335
-0.2978081 -0.468312 -0.6311657
-0.2974019 -0.46959338 -0.63030493
-0.295128 -0.46951607 -0.62630546
-0.29299772 -0.46952024 -0.62254995
-0.29259747 -0.47078288 -0.6217018
-0.29047197 -0.47075725 -0.6179581
-0.28874806 -0.4710117 -0.61489064
-0.289383 -0.473041 -0.6157806
-0.2889861 -0.4742931 -0.61493945
-0.28857794 -0.47553653 -0.6140796
-0.2727383 -0.46475315 -0.58737767
-0.2723672 -0.46592376 -0.5865913
-0.22680284 -0.43127638 -0.5101905
-0.21951155 -0.42661676 -0.49786475
-0.21922803 -0.42751116 -0.49726394
-0.2168507 -0.42670432 -0.4931646
-0.21397905 -0.42546448 -0.4882429
-0.21223567 -0.4251217 -0.4852086
-0.21196254 -0.4259833 -0.48462978
-0.21026084 -0.42564574 -0.48166838
-0.20868044 -0.42539147 -0.47891137
-0.20841196 -0.42623842 -0.47834244
-0.20683298 -0.4259585 -0.47559083
-0.20526095 -0.42566666 -0.47285283
-0.20499693 -0.42649955 -0.47229335
-0.20330974 -0.42607924 -0.46936685
-0.20186415 -0.42585367 -0.4668442
-0.20030595 -0.42551088 -0.46413636
-0.20004864 -0.42632258 -0.4635911
-0.19861315 -0.42606404 -0.46109
-0.19741692 -0.42600796 -0.45898774
-0.19716327 -0.42680812 -0.45845023
-0.1957387 -0.42651984 -0.45597175
-0.19443396 -0.4263272 -0.45369366
-0.19418417 -0.42711517 -0.45316434
-0.19300051 -0.4270151 -0.45108923
-0.1917048 -0.4267943 -0.44883025
-0.19041272 -0.42656186 -0.446579
-0.19016822 -0.42733315 -0.4460609
-0.18899745 -0.42719692 -0.44401258
-0.18771432 -0.42693627 -0.44178027
-0.18747327 -0.42769665 -0.4412695
-0.18619461 -0.42741767 -0.43904713
-0.18492167 -0.42712918 -0.43683594
-0.18468428 -0.42787802 -0.4363329
-0.18330342 -0.4274561 -0.43394658
-0.18215214 -0.427254 -0.43194005
-0.18089104 -0.4269241 -0.42975444
-0.18065916 -0.4276556 -0.42926303
-0.17951731 -0.4274283 -0.42727602
-0.17837875 -0.42719072 -0.42529592
-0.17815012 -0.42791197 -0.42481142
-0.17690483 -0.4275389 -0.42265853
-0.17577305 -0.42727336 -0.42069358
-0.17554788 -0.4279837 -0.42021644
-0.17431174 -0.42758265 -0.4180828
-0.17330042 -0.4274149 -0.41631913
-0.17218152 -0.42711502 -0.41438073
-0.17196122 -0.42780995 -0.4139139
-0.1708472 -0.4274947 -0.41198587
-0.16995952 -0.42742303 -0.41042924
-0.16974206 -0.428109 -0.40996844
-0.16885799 -0.42802572 -0.40841952
-0.16808537 -0.42806143 -0.40705362
-0.16787016 -0.42874032 -0.40659758
-0.16743392 -0.4291589 -0.40578133
-0.16711083 -0.42970812 -0.40514976
-0.16667615 -0.43012238 -0.40433675
-0.16646196 -0.43079805 -0.40388286
-0.16657685 -0.4318719 -0.40396404
-0.16680007 -0.43308294 -0.40422067
-0.16658445 -0.43376312 -0.40376377
-0.16680518 -0.43498185 -0.40401515
-0.16734827 -0.43660823 -0.40478867
-0.16713041 -0.43729544 -0.40432703
-0.167566 -0.43880528 -0.40492424
-0.16810188 -0.44045302 -0.40568262
-0.1686376 -0.4421132 -0.4064394
-0.16841568 -0.44281322 -0.40596914
-0.16873488 -0.44421253 -0.40637368
-0.16915357 -0.44575036 -0.40693796
-0.16892943 -0.44645748 -0.40646294
-0.1692404 -0.44786966 -0.40685153
-0.16954938 -0.4492883 -0.4072359
-0.16932318 -0.45000184 -0.40675658
-0.16963181 -0.45143378 -0.4071388
-0.16982937 -0.45272473 -0.40734115
-0.17023177 -0.45430177 -0.40787232
-0.17000255 -0.45502493 -0.40738654
-0.1703038 -0.456479 -0.4077533
-0.17081086 -0.45822778 -0.4084495
-0.1705792 -0.45895863 -0.40795854
-0.17097677 -0.46057305 -0.40847692
-0.17147136 -0.46233577 -0.4091496
-0.17123705 -0.46307492 -0.40865308
-0.17162666 -0.4647068 -0.40915543
-0.17191014 -0.46619704 -0.40948674
-0.17156343 -0.4667836 -0.40880933
-0.17132711 -0.46752912 -0.40830857
-0.171404 -0.46873406 -0.40830797
-0.17076246 -0.46888432 -0.40716016
-0.17052633 -0.46962926 -0.40665975
-0.16957216 -0.4693012 -0.4050149
-0.16872527 -0.46912125 -0.40354246
-0.16757144 -0.46846572 -0.4015827
-0.16733976 -0.46919656 -0.40109172
-0.16659704 -0.46914485 -0.39978838
-0.16575453 -0.46892986 -0.39832762
-0.16552508 -0.46965367 -0.3978414
-0.16468763 -0.4694293 -0.3963906
-0.16395256 -0.46935406 -0.3951034
-0.16372535 -0.47007084 -0.3946219
-0.16279155 -0.46966556 -0.3930217
-0.16216281 -0.46973407 -0.3919057
-0.1613347 -0.46947443 -0.39047533
-0.16111095 -0.47018027 -0.39000118
-0.16038533 -0.47006986 -0.3887346
-0.15956312 -0.4697916 -0.38731676
-0.15934162 -0.47049037 -0.38684738
-0.15852307 -0.47020057 -0.38543728
-0.15770549 -0.4699006 -0.38403
-0.15748641 -0.47059166 -0.38356578
-0.15657344 -0.47011313 -0.3820106
-0.15556775 -0.4694636 -0.38031128
-0.15466224 -0.4689691 -0.378771
-0.15444764 -0.46964607 -0.37831628
-0.15334854 -0.46879664 -0.37647486
-0.15225473 -0.4679385 -0.37464377
-0.1520438 -0.4686039 -0.3741968
-0.15105471 -0.4679027 -0.37253255
-0.14992124 -0.46693045 -0.37064448
-0.14971387 -0.4675846 -0.37020501
-0.14873153 -0.4668538 -0.36855605
-0.14760673 -0.4658508 -0.3666867
-0.14648725 -0.4648382 -0.3648278
-0.14628537 -0.46547505 -0.3644
-0.14517096 -0.46444288 -0.3625523
-0.14406039 -0.4633985 -0.3607127
-0.14386238 -0.4640231 -0.3602931
-0.1427576 -0.46296045 -0.3584658
-0.14165664 -0.46188548 -0.3566466
-0.14146249 -0.46249792 -0.35623518
-0.14046131 -0.4615826 -0.35457388
-0.13946438 -0.46065778 -0.35292107
-0.1384709 -0.45972207 -0.35127562
-0.13828194 -0.46031818 -0.35087517
-0.1373407 -0.45945722 -0.34931332
-0.1364507 -0.45867947 -0.3478324
-0.13626489 -0.45926565 -0.34743866
-0.13547193 -0.45865571 -0.34610987
-0.13473025 -0.45813373 -0.3448615
-0.13454698 -0.4587119 -0.34447312
-0.13399154 -0.45854422 -0.34351298
-0.13339332 -0.45828202 -0.34248814
-0.13293457 -0.458293 -0.3416783
-0.13275364 -0.45886377 -0.34129488
-0.13234186 -0.4589614 -0.340558
-0.13197787 -0.45915228 -0.33989486
-0.13179787 -0.45972016 -0.3395134
-0.1314358 -0.45990863 -0.3388539
-0.13102956 -0.46000022 -0.33812746
-0.13085045 -0.4605652 -0.33774793
-0.13053508 -0.46084142 -0.33716083
-0.13022037 -0.46111578 -0.33657506
-0.12990627 -0.4613883 -0.33599067
-0.12972808 -0.4619504 -0.33561304
-0.12941493 -0.46222 -0.3350306
-0.1291024 -0.46248773 -0.33444944
-0.12892482 -0.46304792 -0.33407313
-0.12865841 -0.4634124 -0.33356234
-0.12843539 -0.4638708 -0.33311743
-0.12825811 -0.46443003 -0.33274177
-0.12799262 -0.46479163 -0.33223295
-0.12777077 -0.4652493 -0.33179018
-0.12750547 -0.4656075 -0.33128208
-0.1273287 -0.4661651 -0.3309075
-0.12715195 -0.46672276 -0.33053294
-0.12693077 -0.4671781 -0.33009166
-0.12675412 -0.4677354 -0.32971728
-0.12649071 -0.4680907 -0.3292128
-0.1261847 -0.46834406 -0.3286448
-0.12600854 -0.4688998 -0.3282715
-0.12574571 -0.4692503 -0.32776862
-0.12552597 -0.46970114 -0.32733032
-0.12526329 -0.4700481 -0.32682812
-0.12508763 -0.47060218 -0.3264559
-0.12482668 -0.47094992 -0.32595664
-0.12456559 -0.47129503 -0.3254574
-0.12439035 -0.47184783 -0.32508606
-0.124087214 -0.47208616 -0.32452482
-0.12386976 -0.47253284 -0.32409105
-0.123567045 -0.4727665 -0.32353106
-0.123392515 -0.47331706 -0.3231612
-0.12313417 -0.47365692 -0.32266742
-0.122875 -0.47399247 -0.32217267
-0.12270087 -0.47454175 -0.3218037
-0.12244357 -0.47487855 -0.3213121
-0.12214356 -0.47510335 -0.32075787
-0.121969946 -0.47565103 -0.32039
-0.12167151 -0.47587463 -0.31983867
-0.121290654 -0.47587955 -0.3191668
-0.12099367 -0.47609872 -0.31861854
-0.12082117 -0.47664285 -0.318253
-0.12044348 -0.47664258 -0.3175873
-0.12018937 -0.4769661 -0.3171028
-0.12001759 -0.477508 -0.31673878
-0.1196405 -0.47749636 -0.3160754
-0.119266145 -0.47748613 -0.3154167
-0.11909538 -0.4780248 -0.31505483
-0.11864054 -0.4777851 -0.31428018
-0.1182691 -0.47776675 -0.31362754
-0.1178977 -0.47774243 -0.31297562
-0.11772866 -0.47827572 -0.3126174
-0.11724034 -0.47791505 -0.3117974
-0.116751544 -0.47754332 -0.31097782
-0.11658412 -0.47807148 -0.31062302
-0.11617753 -0.47791907 -0.30992356
-0.11573369 -0.47765276 -0.3091713
-0.11556759 -0.47817674 -0.3088193
-0.11520257 -0.47812548 -0.30818167
-0.11468441 -0.47762284 -0.30732512
-0.11420365 -0.47721848 -0.30652338
-0.114039786 -0.47773543 -0.30617613
-0.113522105 -0.477207 -0.30532333
-0.11289166 -0.47633243 -0.3043109
-0.11272993 -0.4768426 -0.30396816
-0.11210174 -0.47595227 -0.30296144
-0.11143719 -0.47493714 -0.30190474
-0.111278 -0.4754393 -0.3015674
-0.11054281 -0.47418404 -0.30041334
-0.109732516 -0.47267944 -0.29915506
-0.108999826 -0.47139266 -0.29800892
-0.10884541 -0.47187978 -0.2976817
-0.10811728 -0.4705785 -0.29654527
-0.10735544 -0.46915224 -0.29536352
-0.10720418 -0.4696294 -0.295043
-0.10648247 -0.46829948 -0.2939211
-0.1058053 -0.46709195 -0.2928639
-0.105657 -0.46755978 -0.29254964
-0.105018064 -0.46644825 -0.291549
-0.10442175 -0.46545756 -0.2906098
-0.10382818 -0.4644602 -0.28967622
-0.103683636 -0.46491617 -0.2893699
-0.10312956 -0.4640251 -0.28849393
-0.10269183 -0.46350434 -0.28778118
-0.102549225 -0.4639542 -0.28747898
-0.10200215 -0.4630522 -0.2866166
-0.10153121 -0.4623915 -0.2858611
-0.10139063 -0.46283495 -0.28556323
-0.1008839 -0.46203476 -0.28476045
-0.10045694 -0.46149358 -0.28406897
-0.09991787 -0.46055683 -0.28322458
-0.099780224 -0.46099102 -0.28293294
-0.099320576 -0.4603077 -0.28219992
-0.098822065 -0.45947674 -0.28141508
-0.09868635 -0.45990485 -0.2811275
-0.09829335 -0.4594255 -0.28048894
-0.09780296 -0.45859107 -0.2797188
-0.09766899 -0.4590137 -0.2794349
-0.09718991 -0.45819932 -0.27868247
-0.09670494 -0.4573504 -0.27792352
-0.096254945 -0.45661446 -0.27721345
-0.0961239 -0.45702788 -0.27693576
-0.09559355 -0.45597893 -0.27611944
-0.09518951 -0.4553793 -0.275475
-0.095060416 -0.4557866 -0.2752014
-0.094616525 -0.45502213 -0.27450535
-0.09396356 -0.45346266 -0.2735306
-0.09383692 -0.45386216 -0.27326223
-0.09312211 -0.45203668 -0.2722085
-0.09260574 -0.45094183 -0.271422
-0.09176418 -0.44858733 -0.27020463
-0.091642566 -0.448971 -0.2699469
-0.09089352 -0.44692922 -0.26885727
-0.09052584 -0.44634336 -0.26827535
-0.090406835 -0.44671878 -0.26802316
-0.66028565 -0.5820569 -1.2498765
-0.64746827 -0.5792836 -1.2277408
-0.6465508 -0.582178 -1.2257966
-0.6346319 -0.5796478 -1.2052068
-0.62231183 -0.57679355 -1.183952
-0.6214289 -0.57957876 -1.182081
-0.6107867 -0.5773863 -1.1636889
-0.6001008 -0.57506037 -1.1452359
-0.59086424 -0.57337815 -1.1292475
-0.5900247 -0.5760265 -1.1274685
-0.58079445 -0.57420343 -1.1115074
-0.572666 -0.5728772 -1.0974193
-0.57185096 -0.57544833 -1.095692
-0.5634462 -0.57384336 -1.0811522
-0.5549815 -0.57211685 -1.0665213
-0.5541904 -0.5746125 -1.0648448
-0.5461388 -0.57298636 -1.0509263
-0.5381038 -0.5712844 -1.0370455
-0.5321997 -0.5707318 -1.0267648
-0.5314395 -0.57312983 -1.0251539
-0.5245228 -0.5718874 -1.013179
-0.51593596 -0.56957436 -0.9984025
-0.515198 -0.57190233 -0.9968386
-0.3855374 -0.49569264 -0.7785147
-0.34331557 -0.47172704 -0.70732224
-0.34284922 -0.47319815 -0.706334
-0.33399644 -0.46940896 -0.6912631
-0.32717583 -0.46680513 -0.679615
-0.3221198 -0.46525216 -0.6709366
-0.32168448 -0.46662545 -0.6700141
-0.3178784 -0.46580246 -0.66344094
-0.31485608 -0.46545357 -0.6581859
-0.31443036 -0.46679658 -0.6572837
-0.31170052 -0.46659568 -0.65252393
-0.30924487 -0.46655166 -0.6482263
-0.30882615 -0.46787253 -0.64733905
-0.3062628 -0.46771634 -0.6428657
-0.30384037 -0.4676313 -0.6386311
-0.30165687 -0.46768862 -0.6347986
-0.3012478 -0.46897906 -0.6339317
-0.29908127 -0.46901494 -0.63013136
-0.29679456 -0.46894202 -0.6261332
-0.29639146 -0.47021368 -0.62527895
-0.29425225 -0.4702129 -0.6215308
-0.29211494 -0.47019136 -0.6177883
-0.29171753 -0.47144496 -0.6169462
-0.28998673 -0.47169563 -0.6138843
-0.29062703 -0.47372788 -0.6147699
-0.2902188 -0.47497132 -0.61391
-0.28982192 -0.47622335 -0.61306894
-0.27390137 -0.46539533 -0.58643275
-0.22802362 -0.43085587 -0.51006436
-0.22772834 -0.43178737 -0.50943863
-0.22040021 -0.42710742 -0.4971428
-0.21800828 -0.42630562 -0.49304497
-0.21772829 -0.4271889 -0.49245164
-0.21484292 -0.42594147 -0.48754108
-0.21309176 -0.42559436 -0.4845131
-0.21138005 -0.42526028 -0.48155272
-0.21110933 -0.42611426 -0.48097906
-0.20952195 -0.42585608 -0.47822773
-0.20793372 -0.42557934 -0.47547707
-0.20766748 -0.42641926 -0.47491285
-0.20608847 -0.42612356 -0.47218055
-0.2043912 -0.42570674 -0.4692551
-0.2041296 -0.42653194 -0.46870077
-0.20267764 -0.42630282 -0.46618333
-0.20111245 -0.4259562 -0.46348116
-0.19966854 -0.42570052 -0.46098092
-0.19941327 -0.42650583 -0.46043995
-0.19821194 -0.42644694 -0.45834187
-0.19677895 -0.42616156 -0.45586422
-0.19652735 -0.4269553 -0.45533103
-0.19521686 -0.42675948 -0.45305762
-0.19402647 -0.4266617 -0.4509832
-0.19377832 -0.42744455 -0.45045733
-0.19247685 -0.42722055 -0.448203
-0.19117904 -0.42698497 -0.4459564
-0.19000153 -0.42685106 -0.44390878
-0.18975867 -0.42761722 -0.44339412
-0.18846981 -0.4273534 -0.4411665
-0.18718356 -0.42707703 -0.43894494
-0.18694435 -0.42783162 -0.43843806
-0.18566568 -0.42753997 -0.4362315
-0.18427642 -0.42712098 -0.433846
-0.18404107 -0.42786342 -0.43334728
-0.18288468 -0.42765844 -0.43134493
-0.18161784 -0.4273254 -0.42916396
-0.18046929 -0.42710045 -0.42717764
-0.18023904 -0.42782682 -0.4266897
-0.17909536 -0.4275864 -0.42471373
-0.17784251 -0.42721596 -0.42256162
-0.1776157 -0.42793143 -0.422081
-0.17647883 -0.42766306 -0.4201202
-0.17523514 -0.4272646 -0.41798738
-0.17421791 -0.42709884 -0.4162243
-0.17399599 -0.42779893 -0.41575402
-0.17287198 -0.42749625 -0.4138198
-0.17175125 -0.42718333 -0.41189247
-0.17153257 -0.42787313 -0.41142908
-0.17064105 -0.4277993 -0.40987554
-0.16975193 -0.42771786 -0.40832713
-0.1695357 -0.42839995 -0.40786892
-0.1687599 -0.42843387 -0.4065056
-0.16832195 -0.42885303 -0.40568954
-0.16799805 -0.4294025 -0.40505806
-0.16778344 -0.43007946 -0.4046033
-0.16734749 -0.43049306 -0.40379134
-0.16746491 -0.43156603 -0.40387228
-0.16725011 -0.43224362 -0.4034171
-0.16747588 -0.4334561 -0.40367165
-0.16769996 -0.43467367 -0.40392268
-0.16748354 -0.4353564 -0.40346405
-0.16803107 -0.43698522 -0.40423396
-0.16847172 -0.4384933 -0.40483066
-0.16901346 -0.44013903 -0.40558842
-0.16879295 -0.44083458 -0.40512118
-0.16933315 -0.4424972 -0.4058743
-0.16965657 -0.44389504 -0.40627843
-0.16943362 -0.44459832 -0.405806
-0.16985613 -0.44613826 -0.40636718
-0.17017132 -0.44754902 -0.40675533
-0.16994615 -0.44825932 -0.4062782
-0.1702583 -0.44967976 -0.40665993
-0.17057116 -0.4511102 -0.40704173
-0.17077208 -0.45240003 -0.40724373
-0.17054406 -0.45311937 -0.4067605
-0.17095026 -0.45469847 -0.4072886
-0.17125574 -0.45615113 -0.4076549
-0.17102548 -0.4568775 -0.40716696
-0.17153701 -0.4586287 -0.40785956
-0.17193963 -0.4602414 -0.40837744
-0.17170672 -0.4609761 -0.40788388
-0.17220576 -0.46274126 -0.40855297
-0.17260039 -0.46437138 -0.40905482
-0.17288806 -0.46586022 -0.40938568
-0.17265151 -0.4666064 -0.40888444
-0.17230412 -0.46719256 -0.4082076
-0.17238356 -0.46839663 -0.40820673
-0.17214662 -0.46914408 -0.40770462
-0.1715026 -0.469293 -0.40655887
-0.17054257 -0.46896696 -0.40491462
-0.17030784 -0.4697074 -0.40441722
-0.16945715 -0.46952537 -0.40294784
-0.16829762 -0.46886665 -0.40099275
-0.16755068 -0.4688164 -0.39968982
-0.16732001 -0.46954405 -0.399201
-0.16647369 -0.46932694 -0.39774337
-0.1656312 -0.46910432 -0.39629307
-0.16540298 -0.46982428 -0.39580944
-0.16466472 -0.4697473 -0.39452484
-0.16372502 -0.46934402 -0.39292523
-0.16349924 -0.4700563 -0.39244676
-0.16286795 -0.47012344 -0.39133283
-0.16203602 -0.46986166 -0.3899056
-0.16130617 -0.46975267 -0.38863945
-0.16108343 -0.47045532 -0.38816744
-0.16025741 -0.47017494 -0.38675272
-0.15943383 -0.46988687 -0.38534316
-0.15921353 -0.4705818 -0.38487634
-0.1583921 -0.47027972 -0.3834722
-0.15747324 -0.46980324 -0.3819176
-0.15725559 -0.4704898 -0.3814564
-0.15624481 -0.46983743 -0.3797612
-0.15533483 -0.46934044 -0.37822458
-0.15422814 -0.46849364 -0.37638393
-0.15401538 -0.46916482 -0.37593308
-0.15291585 -0.46830356 -0.37410668
-0.15192004 -0.4676046 -0.37244314
-0.15171073 -0.46826488 -0.3719996
-0.15057121 -0.46728933 -0.3701164
-0.14958215 -0.4665608 -0.36846814
-0.14937639 -0.46720985 -0.36803216
-0.14824553 -0.4662035 -0.36616772
-0.14712 -0.46518758 -0.36431375
-0.1459976 -0.46415815 -0.36246684
-0.14579764 -0.46478888 -0.3620431
-0.14468102 -0.46374118 -0.36020848
-0.14356826 -0.4626812 -0.358382
-0.14337218 -0.46329978 -0.35796648
-0.14226516 -0.46222144 -0.35615224
-0.14125684 -0.4613086 -0.35449165
-0.14025275 -0.46038625 -0.3528396
-0.14006206 -0.4609878 -0.3524355
-0.13906316 -0.46004912 -0.35079443
-0.13811518 -0.45919046 -0.34923327
-0.13792785 -0.4597814 -0.3488363
-0.13703308 -0.45900106 -0.34735927
-0.13623467 -0.458393 -0.34603104
-0.13605018 -0.458975 -0.3456401
-0.13530467 -0.4584509 -0.3443948
-0.13474587 -0.45828444 -0.34343505
-0.13414387 -0.45802352 -0.34241056
-0.13396233 -0.45859623 -0.34202588
-0.13350166 -0.4586061 -0.34121755
-0.13308778 -0.4587045 -0.3404809
-0.13290736 -0.45927367 -0.34009856
-0.1325421 -0.4594638 -0.33943647
-0.13217837 -0.45965287 -0.33877715
-0.13199876 -0.46021947 -0.33839652
-0.13159093 -0.4603102 -0.3376714
-0.1312743 -0.46058682 -0.3370844
-0.1309583 -0.46086162 -0.3364988
-0.13077982 -0.4614247 -0.33612055
-0.13046478 -0.46169665 -0.3355369
-0.13015035 -0.46196672 -0.3349546
-0.12997247 -0.46252787 -0.33457765
-0.12965898 -0.46279505 -0.33399725
-0.12939174 -0.4631598 -0.3334866
-0.12921438 -0.46371934 -0.3331107
-0.12899101 -0.4641776 -0.33266604
-0.12872468 -0.4645395 -0.33215728
-0.1285024 -0.4649973 -0.33171457
-0.12832543 -0.46555555 -0.33133957
-0.12805949 -0.4659134 -0.33083197
-0.12788275 -0.46647105 -0.33045742
-0.12770598 -0.46702865 -0.33008283
-0.12748449 -0.46748382 -0.3296418
-0.12722024 -0.46783942 -0.3291374
-0.12704378 -0.46839607 -0.32876348
-0.12673682 -0.46864894 -0.32819626
-0.12647314 -0.46899974 -0.32769343
-0.12625298 -0.46945074 -0.3272552
-0.12607713 -0.47000548 -0.32688257
-0.12581381 -0.47035205 -0.32638085
-0.12555201 -0.4707001 -0.3258817
-0.12537658 -0.4712535 -0.3255099
-0.12511484 -0.4715983 -0.32501116
-0.12481045 -0.47183707 -0.32445008
-0.12463552 -0.4723889 -0.32407936
-0.12441773 -0.47283542 -0.32364586
-0.12411406 -0.47306854 -0.32308665
-0.12385488 -0.4734087 -0.32259294
-0.123680554 -0.47395864 -0.32222354
-0.12342073 -0.47429377 -0.3217293
-0.1231626 -0.4746309 -0.3212378
-0.12298868 -0.47517955 -0.32086924
-0.122687705 -0.47540382 -0.32031578
-0.12238801 -0.47562784 -0.3197646
-0.122214705 -0.47617453 -0.31939736
-0.12183225 -0.47617862 -0.31872678
-0.12153431 -0.47639722 -0.3181793
-0.121154524 -0.4763977 -0.3175138
-0.120982535 -0.47694024 -0.3171493
-0.12072779 -0.4772634 -0.31666538
-0.120348595 -0.47725248 -0.31600222
-0.12017732 -0.4777928 -0.3156393
-0.11980139 -0.47778168 -0.31498188
-0.11934361 -0.47754297 -0.31420752
-0.11917355 -0.4780794 -0.31384715
-0.11880052 -0.47806016 -0.3131958
-0.11842752 -0.47803497 -0.31254518
-0.11793587 -0.4776755 -0.31172553
-0.11776765 -0.47820622 -0.31136903
-0.117276296 -0.4778331 -0.3105515
-0.11686718 -0.47768155 -0.30985227
-0.116700366 -0.47820777 -0.3094988
-0.11625431 -0.4779402 -0.30874833
-0.11588718 -0.4778897 -0.30811092
-0.11572158 -0.4784121 -0.30776
-0.11520057 -0.47790784 -0.30690578
-0.11471725 -0.47750205 -0.30610612
-0.11419578 -0.47697496 -0.3052537
-0.11403283 -0.477489 -0.3049084
-0.11339858 -0.47661233 -0.30389905
-0.11276535 -0.4757237 -0.30289286
-0.112604834 -0.47623008 -0.3025527
-0.11193614 -0.47521263 -0.3014994
-0.11119467 -0.47395954 -0.300346
-0.111037 -0.4744569 -0.30001184
-0.1102213 -0.47294933 -0.29875794
-0.10948381 -0.47165987 -0.29761574
-0.10874937 -0.4703608 -0.29647994
-0.10859648 -0.47084308 -0.296156
