ply
format ascii 1.0
element vertex 1334
property float x
property float y
property float z
end_header
-0.039700877 -0.22386554 -0.37201706
-0.03951374 -0.22458261 -0.37056902
-0.03922878 -0.22496666 -0.3684759
-0.039173618 -0.22611153 -0.36790144
-0.03908565 -0.2271453 -0.36711058
-0.038997848 -0.22817796 -0.36632106
-0.038942758 -0.2293214 -0.36574733
-0.038952913 -0.23069085 -0.36560318
-0.039028082 -0.2322905 -0.36588633
-0.03907048 -0.23378168 -0.3659529
-0.03901508 -0.23493159 -0.36537594
-0.039057177 -0.23642923 -0.3654393
-0.03916315 -0.23816141 -0.36592117
-0.03910747 -0.23931703 -0.36534134
-0.039212026 -0.2410566 -0.3658119
-0.03928543 -0.24269022 -0.3660771
-0.039422434 -0.24456565 -0.3667576
-0.03936624 -0.24573195 -0.3661724
-0.039375894 -0.2471451 -0.36601776
-0.03938336 -0.24855348 -0.36584827
-0.03932703 -0.24972269 -0.36526164
-0.039398078 -0.25137946 -0.36550635
-0.03947049 -0.25304827 -0.36575887
-0.03941388 -0.2542232 -0.36516935
-0.039516885 -0.25602177 -0.3656195
-0.039524123 -0.2574521 -0.36544493
-0.039531622 -0.2588869 -0.36527154
-0.039474707 -0.26006824 -0.3646788
-0.039577164 -0.2618894 -0.36512148
-0.0396796 -0.26371902 -0.36556277
-0.039622344 -0.26490754 -0.36496642
-0.03975566 -0.26687652 -0.36560586
-0.03985651 -0.2687219 -0.3660333
-0.039798867 -0.2699183 -0.36543298
-0.039931487 -0.2719093 -0.36606398
-0.040031757 -0.27377462 -0.3664841
-0.04013168 -0.27564713 -0.36690062
-0.040073488 -0.276855 -0.36629456
-0.040172577 -0.27873686 -0.3667037
-0.040271644 -0.2806273 -0.36711127
-0.040213108 -0.28184232 -0.36650163
-0.04031166 -0.28374347 -0.36690387
-0.04040988 -0.28565186 -0.36730257
-0.040351 -0.28687406 -0.36668932
-0.0404487 -0.28879315 -0.36708266
-0.04054578 -0.29071823 -0.36747062
-0.04064278 -0.29265162 -0.36785665
-0.040583383 -0.29388452 -0.36723804
-0.040679555 -0.29582724 -0.3676167
-0.04074441 -0.2976349 -0.3677934
-0.0406847 -0.29887423 -0.36717156
-0.040717475 -0.30054337 -0.36714137
-0.040781558 -0.30236405 -0.36731043
-0.040721606 -0.30360836 -0.3666861
-0.040876616 -0.30586985 -0.367434
-0.04096985 -0.30784947 -0.36778587
-0.041250095 -0.31073332 -0.36932853
-0.041189354 -0.31199408 -0.3686959
-0.04103666 -0.3128093 -0.367478
-0.040917024 -0.31378025 -0.36647117
-0.04085645 -0.31503752 -0.36584035
-0.040551 -0.31508702 -0.36365405
-0.040060498 -0.31420434 -0.36029536
-0.04000068 -0.31544584 -0.35967243
-0.039512403 -0.31453693 -0.35633376
-0.03899456 -0.3134539 -0.35281175
-0.038508188 -0.31250396 -0.34949318
-0.038449857 -0.31371465 -0.3488857
-0.037995074 -0.31288943 -0.34577265
-0.037541334 -0.31204632 -0.3426699
-0.0374839 -0.3132384 -0.34207177
-0.037062038 -0.31252685 -0.33917555
-0.036641013 -0.31179821 -0.33628803
-0.036584407 -0.31297314 -0.33569852
-0.03619457 -0.3123778 -0.33301234
-0.035775602 -0.31160703 -0.33014616
-0.035387497 -0.3109804 -0.32747725
-0.03533206 -0.312131 -0.32689995
-0.034945086 -0.3114807 -0.32424286
-0.034558877 -0.3108147 -0.32159373
-0.0345042 -0.31194955 -0.3210243
-0.034119118 -0.3112599 -0.31838697
-0.033735003 -0.31055558 -0.31575882
-0.033681083 -0.31167468 -0.3151973
-0.03332783 -0.31111363 -0.3127666
-0.032945376 -0.31036955 -0.3101566
-0.032593537 -0.30977914 -0.30774066
-0.03254069 -0.31087607 -0.30719027
-0.0321899 -0.3102642 -0.30478516
-0.031839784 -0.309638 -0.30238718
-0.031787626 -0.3107206 -0.301844
-0.031438556 -0.31007293 -0.29945683
-0.031119835 -0.30958474 -0.2972609
-0.031068332 -0.31065372 -0.29672453
-0.030750534 -0.31014612 -0.2945383
-0.030433178 -0.30962458 -0.29235736
-0.03011663 -0.30909124 -0.29018408
-0.03006606 -0.31014088 -0.2896574
-0.029750438 -0.30958822 -0.2874938
-0.029435439 -0.30902264 -0.28533667
-0.02938549 -0.3100594 -0.28481647
-0.029100584 -0.30965355 -0.2828487
-0.028787099 -0.30905646 -0.28070733
-0.028503306 -0.30862683 -0.27875125
-0.02845422 -0.30964568 -0.27824005
-0.02814245 -0.30901828 -0.27611572
-0.027831107 -0.30837685 -0.27399665
-0.02778264 -0.3093828 -0.27349192
-0.027472232 -0.308722 -0.27138254
-0.027191514 -0.30823427 -0.2694576
-0.027143635 -0.30922806 -0.26895896
-0.026834749 -0.30853578 -0.26686546
-0.026526665 -0.30783188 -0.26477954
-0.02624777 -0.30730143 -0.26287434
-0.026200788 -0.30827656 -0.26238504
-0.02589404 -0.30753994 -0.2603138
-0.025616743 -0.30698135 -0.25842443
-0.025570348 -0.30794433 -0.25794125
-0.025265262 -0.30717716 -0.2558867
-0.024989223 -0.3065882 -0.25401112
-0.024943413 -0.307539 -0.25353405
-0.024668353 -0.30693385 -0.25166804
-0.02439399 -0.3063182 -0.24980862
-0.024120029 -0.30569008 -0.24795406
-0.024075046 -0.30662373 -0.24748558
-0.023830293 -0.30617484 -0.24581099
-0.023557678 -0.30551878 -0.24397044
-0.023513213 -0.3064417 -0.24350737
-0.02324157 -0.30576947 -0.24167632
-0.022998715 -0.30528504 -0.24002089
-0.022954766 -0.30619723 -0.2395632
-0.022712493 -0.30569673 -0.23791446
-0.022499118 -0.30538955 -0.23644122
-0.022257922 -0.30487075 -0.23480305
-0.022214666 -0.30576858 -0.23435256
-0.021974342 -0.30523586 -0.23272282
-0.021734357 -0.30469203 -0.23109724
-0.021691583 -0.30557984 -0.23065177
-0.021480387 -0.30522764 -0.22920121
-0.021241572 -0.30465946 -0.22758783
-0.021199247 -0.30553797 -0.22714704
-0.020961339 -0.3049561 -0.22554229
-0.020751676 -0.30457252 -0.22410764
-0.020542216 -0.3041787 -0.22267604
-0.020500544 -0.30504364 -0.22224206
-0.020291906 -0.30463848 -0.22081812
-0.02005614 -0.3040142 -0.21923533
-0.020014916 -0.30486983 -0.21880601
-0.019834548 -0.30465227 -0.21755405
-0.019627336 -0.30421683 -0.21614505
-0.019586494 -0.30506456 -0.2157197
-0.0193799 -0.30461624 -0.21431717
-0.019200958 -0.30437326 -0.2130794
-0.018995496 -0.3039111 -0.21168712
-0.01895524 -0.30474666 -0.21126787
-0.018777119 -0.30448443 -0.21003897
-0.018572263 -0.30399838 -0.2086548
-0.018532388 -0.30482605 -0.20823953
-0.018328138 -0.30432698 -0.20686173
-0.01807016 -0.30338037 -0.20517153
-0.018030766 -0.30419803 -0.20476127
-0.017826961 -0.30367067 -0.20339112
-0.017650537 -0.30335626 -0.20218258
-0.01744972 -0.30283043 -0.2008335
-0.017410913 -0.3036359 -0.20042935
-0.017236257 -0.30331007 -0.19923523
-0.017112844 -0.30340275 -0.19834039
-0.017074319 -0.30420238 -0.19793916
-0.01692606 -0.30407602 -0.19690177
-0.016724275 -0.3034877 -0.19555567
-0.016686099 -0.3042801 -0.19515808
-0.016537447 -0.30412778 -0.19412197
-0.016341193 -0.30355832 -0.19281235
-0.016189404 -0.30336055 -0.19176108
-0.016151717 -0.30414277 -0.1913686
-0.01595299 -0.30352354 -0.19004917
-0.015877873 -0.3039725 -0.18944244
-0.015840443 -0.30474943 -0.18905263
-0.015694749 -0.3045718 -0.18804161
-0.015472693 -0.30370978 -0.18659422
-0.015435642 -0.30447882 -0.18620835
-0.015095969 -0.302545 -0.18409163
-0.014885847 -0.3017499 -0.18271877
-0.014378921 -0.2982676 -0.17965406
-0.014343101 -0.29901108 -0.17928103
-0.014225433 -0.29901093 -0.17844184
-0.01388521 -0.29697347 -0.17633757
-0.013849894 -0.29770648 -0.17596976
-0.23814572 -0.41811892 -1.7166674
-0.23790671 -0.42308006 -1.7141781
-0.23100087 -0.41799805 -1.6667908
-0.22453913 -0.4133114 -1.6224396
-0.22431241 -0.41801727 -1.6200784
-0.21882218 -0.41445816 -1.5823255
-0.21484259 -0.41307858 -1.5547618
-0.2113352 -0.4122998 -1.5303965
-0.21112025 -0.41676134 -1.528158
-0.20820153 -0.41674557 -1.5077775
-0.20527786 -0.41660517 -1.4873829
-0.2050681 -0.42095882 -1.4851985
-0.20241693 -0.42111167 -1.4666586
-0.1995005 -0.42069674 -1.4463601
-0.1992957 -0.42494747 -1.4442272
-0.19653475 -0.42463374 -1.4249978
-0.19403423 -0.42467943 -1.4075278
-0.19169849 -0.42492634 -1.3911753
-0.19150046 -0.42903692 -1.3891128
-0.188765 -0.4283949 -1.3701158
-0.18603756 -0.42765683 -1.3511907
-0.18584444 -0.43166548 -1.3491793
-0.18434611 -0.43314335 -1.3384713
-0.1806958 -0.43034363 -1.313442
-0.1805073 -0.43425617 -1.3114789
-0.17053428 -0.41854796 -1.2444284
-0.07705301 -0.23309398 -0.62225187
-0.072125845 -0.22500104 -0.58918047
-0.07204259 -0.22672902 -0.58831346
-0.07064744 -0.22570945 -0.57873887
-0.0691673 -0.22445132 -0.5686102
-0.0690867 -0.22612426 -0.5677708
-0.067787185 -0.22516242 -0.5588546
-0.06678797 -0.22480163 -0.55193615
-0.066709474 -0.22643101 -0.5511186
-0.06593671 -0.22651272 -0.5457085
-0.06509317 -0.22640361 -0.5398356
-0.06424569 -0.22625086 -0.53394246
-0.064169385 -0.22783463 -0.53314775
-0.063324645 -0.22763562 -0.5272814
-0.06248129 -0.22740482 -0.52142996
-0.062406506 -0.22895709 -0.5206511
-0.061430167 -0.22835588 -0.51393217
-0.060587227 -0.22803503 -0.5080985
-0.05961049 -0.22735304 -0.5013901
-0.059538256 -0.22885233 -0.5006378
-0.05856413 -0.2281143 -0.49395695
-0.057486743 -0.227076 -0.4866046
-0.057416406 -0.22853588 -0.4858721
-0.056448016 -0.22770551 -0.47924656
-0.055480354 -0.22683518 -0.47263268
-0.055411812 -0.22825785 -0.47191885
-0.05458413 -0.22769141 -0.4662323
-0.05375868 -0.22709535 -0.46056628
-0.052969147 -0.2265595 -0.4551411
-0.052902848 -0.22793563 -0.45445064
-0.05208169 -0.22726296 -0.4488272
-0.051329587 -0.2267437 -0.44366068
-0.051264737 -0.22808973 -0.4429853
-0.050413046 -0.22724438 -0.4371772
-0.049664482 -0.22665131 -0.43204764
-0.049601115 -0.22796656 -0.4313877
-0.048821602 -0.22723617 -0.42606464
-0.048111193 -0.22667061 -0.42119697
-0.047401376 -0.22607574 -0.41633824
-0.047340043 -0.22734876 -0.41569948
-0.04663196 -0.22671238 -0.41085976
-0.0458931 -0.2259532 -0.40582538
-0.045833115 -0.2271983 -0.40520066
-0.045129288 -0.22649597 -0.40040153
-0.044257544 -0.22525047 -0.39451957
-0.044199042 -0.22646476 -0.3939103
-0.043229703 -0.2248577 -0.3874065
-0.04222807 -0.22310542 -0.38070118
-0.04159779 -0.22247541 -0.37640375
-0.041541766 -0.2236382 -0.3758203
-0.04101504 -0.22329691 -0.37219825
-0.04082463 -0.2240154 -0.37074974
-0.040769227 -0.22516532 -0.37017277
-0.04047879 -0.2255468 -0.3680814
-0.04039 -0.22658092 -0.3672904
-0.040334877 -0.2277251 -0.36671633
-0.04024629 -0.2287574 -0.36592704
-0.04025808 -0.23012613 -0.36578313
-0.04033652 -0.23172437 -0.36606672
-0.04028122 -0.23287213 -0.36549082
-0.04032597 -0.23436438 -0.36555666
-0.040370516 -0.23586096 -0.36562037
-0.04031501 -0.23701303 -0.36504233
-0.040424876 -0.23874702 -0.36552298
-0.040533476 -0.24048483 -0.3659941
-0.040477626 -0.24164401 -0.36541247
-0.04055416 -0.24327905 -0.36567667
-0.04069583 -0.24515666 -0.36635572
-0.040707152 -0.2465691 -0.36620128
-0.04065089 -0.24773689 -0.36561534
-0.040659904 -0.24914598 -0.3654454
-0.04073419 -0.25080138 -0.36569056
-0.040677726 -0.25197342 -0.36510247
-0.04075328 -0.25364366 -0.365354
-0.04086035 -0.25544047 -0.36580473
-0.040803574 -0.25661898 -0.36521342
-0.040812373 -0.25805002 -0.36503834
-0.040821455 -0.25948554 -0.36486447
-0.040927988 -0.26130491 -0.36530772
-0.0408709 -0.26248986 -0.36471316
-0.040977262 -0.2643213 -0.36515322
-0.041115478 -0.26628816 -0.36579335
-0.041058008 -0.26748097 -0.36519483
-0.041162755 -0.26932818 -0.365621
-0.041300286 -0.27131706 -0.3662527
-0.041242436 -0.27251774 -0.36565024
-0.04134661 -0.27438492 -0.3660691
-0.041450445 -0.27625924 -0.3664844
-0.041553605 -0.27813932 -0.3668941
-0.04149524 -0.2793508 -0.36628622
-0.04159822 -0.28124303 -0.3666926
-0.041700855 -0.28314242 -0.3670954
-0.041642144 -0.28436103 -0.36648396
-0.04174427 -0.2862712 -0.36688143
-0.041846056 -0.28818855 -0.3672753
-0.041787 -0.28941432 -0.36666027
-0.041887984 -0.29134122 -0.36704698
-0.041988894 -0.29327637 -0.36743182
-0.04208914 -0.29521734 -0.36781105
-0.042029567 -0.29645383 -0.36719063
-0.042097546 -0.29826292 -0.36736634
-0.04213275 -0.299931 -0.36733648
-0.042072937 -0.3011725 -0.36671355
-0.04214014 -0.3029946 -0.36688167
-0.042300817 -0.30525362 -0.36763033
-0.0423981 -0.30723152 -0.36798277
-0.042337738 -0.30848435 -0.36735415
-0.042626597 -0.31137222 -0.36889407
-0.042471472 -0.31218848 -0.36767584
-0.042410836 -0.31344706 -0.36704433
-0.042289693 -0.31441736 -0.36603794
-0.04197774 -0.31446972 -0.36385074
-0.041917443 -0.31572124 -0.3632228
-0.041415986 -0.31483346 -0.35986754
-0.040916283 -0.3139295 -0.3565273
-0.040386207 -0.31285176 -0.35300362
-0.040327393 -0.31407252 -0.3523911
-0.03983008 -0.31311747 -0.34907597
-0.039364684 -0.31229684 -0.34596148
-0.0393068 -0.31349826 -0.34535867
-0.038842898 -0.3126504 -0.3422591
-0.03841124 -0.31194308 -0.33936155
-0.03835422 -0.31312662 -0.3387677
-0.037923828 -0.3123936 -0.3358832
-0.037525006 -0.31180218 -0.33319578
-0.037096247 -0.31103563 -0.33032823
-0.037040435 -0.31219408 -0.32974696
-0.03664373 -0.31156346 -0.3270808
-0.03624777 -0.31091708 -0.32442245
-0.03619272 -0.3120598 -0.32384908
-0.03579791 -0.3113898 -0.32120267
-0.03540385 -0.31070402 -0.3185641
-0.035349555 -0.31183097 -0.31799865
-0.034956843 -0.3111227 -0.31537318
-0.034595426 -0.31056517 -0.31294137
-0.034203995 -0.30982497 -0.31033012
-0.0341508 -0.31092906 -0.30977616
-0.033791143 -0.310335 -0.30736268
-0.03343219 -0.3097267 -0.30495644
-0.03337969 -0.31081644 -0.30440965
-0.033021756 -0.31018662 -0.30201414
-0.032664523 -0.3095425 -0.29962584
-0.03261271 -0.3106179 -0.29908624
-0.032286953 -0.31012645 -0.29689255
-0.03196181 -0.30962202 -0.29470527
-0.031637102 -0.30910367 -0.29252332
-0.031586222 -0.31015974 -0.29199344
-0.031262636 -0.30962315 -0.28982237
-0.030939672 -0.3090737 -0.28765774
-0.030889412 -0.31011686 -0.28713432
-0.030567376 -0.30954802 -0.2849794
-0.030275933 -0.309145 -0.28301072
-0.03022626 -0.310176 -0.2824934
-0.02990574 -0.30957565 -0.28035426
-0.029615691 -0.30914316 -0.27840018
-0.029296579 -0.30851892 -0.27627483
-0.029247804 -0.30953133 -0.27576685
-0.028929424 -0.30888662 -0.27365002
-0.02861167 -0.308229 -0.27153966
-0.028563512 -0.3092285 -0.27103814
-0.028276542 -0.30873787 -0.26911515
-0.02796031 -0.30804878 -0.26702064
-0.027912742 -0.30903614 -0.26652524
-0.02759763 -0.30832896 -0.26444152
-0.027312476 -0.30779558 -0.2625383
-0.026998382 -0.30706212 -0.26046604
-0.02695171 -0.30803084 -0.25998
-0.02666816 -0.30746934 -0.2580926
-0.02635573 -0.30670536 -0.25603703
-0.026309645 -0.30766192 -0.2555571
-0.02602735 -0.30707002 -0.2536835
-0.02574576 -0.30646768 -0.25181657
-0.025700226 -0.30741277 -0.25134236
-0.025419613 -0.30679423 -0.24948493
-0.025139397 -0.30616322 -0.24763232
-0.024888927 -0.3057168 -0.24595694
-0.024844186 -0.30664542 -0.24549101
-0.024565315 -0.30598646 -0.24365242
-0.024287147 -0.3053171 -0.24182045
-0.024242958 -0.30623427 -0.24136026
-0.023994634 -0.3057473 -0.23970656
-0.023746641 -0.30524927 -0.23805702
-0.023702936 -0.30615643 -0.23760186
-0.02348487 -0.30584708 -0.2361301
-0.0232382 -0.30532572 -0.23449367
-0.02299217 -0.30479547 -0.23286314
-0.022949154 -0.3056883 -0.23241515
-0.022703696 -0.30514193 -0.2307913
-0.022487603 -0.30479184 -0.22934008
-0.022445036 -0.30567536 -0.22889675
-0.02220075 -0.30510464 -0.22728512
-0.021957131 -0.30452526 -0.22567958
-0.021915046 -0.30539876 -0.22524129
-0.021700697 -0.30501297 -0.22380814
-0.021486541 -0.30461702 -0.222378
-0.021273004 -0.30421397 -0.22095338
-0.021231541 -0.30507457 -0.22052155
-0.020990307 -0.3044478 -0.2189405
-0.020805843 -0.30423203 -0.21768795
-0.020764796 -0.30508405 -0.21726047
-0.020552889 -0.30464643 -0.21585295
-0.020341398 -0.30420023 -0.21444973
-0.020158365 -0.303959 -0.21321139
-0.020117903 -0.30479884 -0.21279
-0.01990776 -0.30433452 -0.2113992
-0.019725544 -0.30407405 -0.21016975
-0.019685462 -0.304906 -0.2097523
-0.019475913 -0.30441782 -0.2083696
-0.019266762 -0.30392087 -0.20699114
-0.019227093 -0.30474424 -0.20657802
-0.018962875 -0.30379474 -0.20488977
-0.01875415 -0.30326948 -0.20351896
-0.018573612 -0.30295688 -0.20230983
-0.018534603 -0.30376658 -0.20190355
-0.018329136 -0.30323863 -0.20055595
-0.018150393 -0.30291453 -0.19936126
-0.01811176 -0.3037164 -0.19895892
-0.0179859 -0.30380797 -0.19806483
-0.01783433 -0.303683 -0.197027
-0.017795945 -0.30447972 -0.19662723
-0.01758943 -0.30388924 -0.19528262
-0.017437428 -0.3037384 -0.19424605
-0.017236374 -0.303171 -0.19293576
-0.01719854 -0.30395627 -0.19254175
-0.017043438 -0.30375695 -0.19149151
-0.016839802 -0.30313984 -0.19017144
-0.016802322 -0.30391774 -0.18978111
-0.016726108 -0.3043662 -0.18917473
-0.016577102 -0.30419004 -0.18816327
-0.016539812 -0.30496404 -0.18777491
-0.016312338 -0.3040995 -0.18632922
-0.015963376 -0.30216968 -0.18421122
-0.015747923 -0.3013769 -0.18283762
-0.015711488 -0.30213314 -0.18245819
-0.015190693 -0.29864436 -0.17939787
-0.0150705 -0.2986453 -0.17855835
-0.0150347855 -0.29938656 -0.1781864
-0.014685552 -0.29734492 -0.17608498
-0.24325114 -0.42018387 -1.7129061
-0.2362107 -0.4151836 -1.6656029
-0.23597832 -0.42000708 -1.6631826
-0.22942458 -0.415316 -1.6191558
-0.22381367 -0.4118005 -1.5813763
-0.21952713 -0.41010928 -1.5523429
-0.21930948 -0.4146269 -1.5500762
-0.21572654 -0.4137984 -1.5257077
-0.21275578 -0.41381425 -1.505382
-0.21254387 -0.41821274 -1.5031749
-0.20969655 -0.41825858 -1.4836882
-0.20701346 -0.41846806 -1.4652969
-0.20680635 -0.42276683 -1.4631399
-0.20385148 -0.42235336 -1.4429966
-0.20116095 -0.42228237 -1.4246029
-0.19863921 -0.42240232 -1.4073308
-0.19843923 -0.4265532 -1.4052479
-0.19605583 -0.42677405 -1.3889049
-0.19341153 -0.42642638 -1.370875
-0.19321594 -0.43048632 -1.368838
-0.19025007 -0.429382 -1.3487384
-0.18844837 -0.4303539 -1.3362455
-0.18825692 -0.4343276 -1.3342518
-0.18423872 -0.43092045 -1.3073496
-0.16686676 -0.4013036 -1.1936057
-0.07810958 -0.23017174 -0.61587393
-0.07802258 -0.2319775 -0.6149679
-0.07393534 -0.22572115 -0.58808386
-0.07246493 -0.2246216 -0.578214
-0.072383076 -0.22632053 -0.5773616
-0.07097003 -0.22524948 -0.5678792
-0.06966604 -0.22434945 -0.5591135
-0.06958664 -0.22599758 -0.55828655
-0.06857451 -0.22564349 -0.55142343
-0.06777852 -0.22571705 -0.5459654
-0.06698324 -0.22576049 -0.5405173
-0.06690611 -0.22736137 -0.53971404
-0.06604192 -0.22720319 -0.53382933
-0.06518348 -0.22702307 -0.52798766
-0.06510787 -0.22859251 -0.5272002
-0.06425145 -0.22836484 -0.5213806
-0.06331711 -0.22792119 -0.5150651
-0.06324308 -0.2294577 -0.51429415
-0.062315702 -0.22897284 -0.50803334
-0.061322175 -0.22829147 -0.50135386
-0.06031989 -0.22754756 -0.49462518
-0.060248487 -0.22902961 -0.49388155
-0.059081875 -0.22781871 -0.48610917
-0.058126505 -0.22708245 -0.47970018
-0.058057033 -0.22852446 -0.47897664
-0.057069007 -0.22764543 -0.47236884
-0.056223284 -0.22708741 -0.46667928
-0.056155466 -0.22849502 -0.465973
-0.055313412 -0.22789331 -0.46031603
-0.05450682 -0.22734898 -0.45489177
-0.05366771 -0.22668485 -0.4492657
-0.053602133 -0.22804596 -0.44858274
-0.05283429 -0.22752 -0.44342044
-0.05196386 -0.2266836 -0.43760976
-0.051899765 -0.22801392 -0.43694228
-0.051135484 -0.22741419 -0.43181702
-0.050373152 -0.22678737 -0.42670974
-0.05031044 -0.22808903 -0.42605662
-0.04951603 -0.22732277 -0.42075396
-0.048791267 -0.22672078 -0.41589943
-0.048067603 -0.22609097 -0.41105723
-0.04800693 -0.22735035 -0.41042534
-0.047286045 -0.22668202 -0.4056088
-0.04656655 -0.2259867 -0.4008064
-0.046507183 -0.2272189 -0.40018815
-0.045583528 -0.2258663 -0.3941022
-0.044557612 -0.22416456 -0.38737682
-0.044500075 -0.22535887 -0.38677758
-0.04347759 -0.22359872 -0.38008574
-0.042867336 -0.22306457 -0.3760029
-0.04236439 -0.22283769 -0.37260124
-0.042308815 -0.22399119 -0.37202245
-0.04214952 -0.22481722 -0.3707905
-0.04195574 -0.22552857 -0.36934236
-0.041900408 -0.22667703 -0.36876613
-0.041810684 -0.22771443 -0.36797372
-0.04172168 -0.22875251 -0.3671861
-0.04166642 -0.22989956 -0.36661056
-0.041645505 -0.23116001 -0.3662505
-0.041761212 -0.23287661 -0.36674652
-0.04184249 -0.23448619 -0.36702546
-0.041786883 -0.2356404 -0.36644632
-0.041866113 -0.23725301 -0.36671072
-0.041979622 -0.23898962 -0.36718825
-0.0419237 -0.24015024 -0.3666059
-0.04203662 -0.24189724 -0.36707762
-0.04218398 -0.24377307 -0.36776277
-0.042263266 -0.24541914 -0.3680218
-0.04220683 -0.24659048 -0.36743405
-0.042251144 -0.24812168 -0.3674736
-0.042228512 -0.24941713 -0.36709574
-0.04217194 -0.25059134 -0.36650658
-0.04221658 -0.2521346 -0.36654624
-0.042327736 -0.25392717 -0.36699805
-0.042270888 -0.2551071 -0.36640602
-0.042314924 -0.2566625 -0.36643952
-0.042358745 -0.25822216 -0.36647078
-0.04240238 -0.2597862 -0.3665
-0.042345222 -0.26097253 -0.36590475
-0.042455904 -0.26280054 -0.36634722
-0.04259919 -0.26476252 -0.36698967
-0.042541657 -0.26595676 -0.36639047
-0.042651325 -0.26780298 -0.36682287
-0.042760238 -0.26965475 -0.36724916
-0.042702354 -0.27085617 -0.36664632
-0.042844005 -0.27285093 -0.36727196
-0.042952027 -0.27472135 -0.36768895
-0.0430597 -0.27659893 -0.36810228
-0.043001264 -0.2778118 -0.36749372
-0.043108072 -0.27969867 -0.36789957
-0.04321489 -0.28159416 -0.36830395
-0.04315611 -0.28281417 -0.3676918
-0.043295436 -0.28485766 -0.36829314
-0.04340106 -0.28677052 -0.36868638
-0.0433419 -0.28799844 -0.36807027
-0.043447338 -0.2899234 -0.36846018
-0.043552402 -0.29185542 -0.3688463
-0.043623958 -0.29365242 -0.36902645
-0.043564316 -0.2948903 -0.3684053
-0.04366846 -0.29683912 -0.36878225
-0.043739025 -0.29864997 -0.36895326
-0.043679077 -0.2998943 -0.36832893
-0.043716542 -0.30156922 -0.36829686
-0.043851215 -0.30368152 -0.3688545
-0.043790955 -0.30493227 -0.36822695
-0.04389308 -0.30691373 -0.36858445
-0.044029508 -0.30905917 -0.3691484
-0.044323824 -0.31193408 -0.3706669
-0.044262808 -0.31320056 -0.37003142
-0.043976758 -0.31343025 -0.368035
-0.043819673 -0.31424543 -0.36682
-0.043758996 -0.31550482 -0.3661881
-0.04340848 -0.31540528 -0.36380735
-0.04286371 -0.31437394 -0.3602581
-0.042803865 -0.31561616 -0.35963482
-0.042293124 -0.3147075 -0.35629725
-0.04171925 -0.31347132 -0.35258415
-0.041210324 -0.3125203 -0.3492663
-0.041151993 -0.313731 -0.3486588
-0.040676586 -0.3129064 -0.34554848
-0.040233947 -0.31221965 -0.3426386
-0.04017648 -0.31341243 -0.34204012
-0.039735246 -0.31270063 -0.3391441
-0.039295018 -0.3119726 -0.33625785
-0.03923838 -0.3131482 -0.33566797
-0.038799413 -0.3123945 -0.33279473
-0.03836109 -0.31162268 -0.32992905
-0.037955407 -0.31099594 -0.32726163
-0.037899975 -0.3121465 -0.3266843
-0.037526943 -0.31165877 -0.32421637
-0.037091628 -0.31083 -0.321381
-0.03703695 -0.31196484 -0.3208116
-0.03666594 -0.31144097 -0.31836364
-0.036264002 -0.31073615 -0.31573534
-0.036210053 -0.31185597 -0.31517348
-0.03580947 -0.31112865 -0.31255823
-0.035409432 -0.31038445 -0.3099497
-0.03504162 -0.30979398 -0.3075351
-0.034988772 -0.3108909 -0.30698475
-0.034621995 -0.31027892 -0.30458096
-0.034287263 -0.30982423 -0.3023693
-0.03423507 -0.31090754 -0.30182573
-0.03386998 -0.31026047 -0.29943955
-0.033536647 -0.3097718 -0.29724333
-0.03348511 -0.3108415 -0.2967066
-0.033152897 -0.31033453 -0.29452118
-0.03282112 -0.30981365 -0.29234114
-0.032490153 -0.3092809 -0.2901687
-0.03243955 -0.31033128 -0.28964168
-0.032078657 -0.3096023 -0.2872983
-0.031749275 -0.30903664 -0.28514236
-0.031699326 -0.3100734 -0.28462216
-0.03140182 -0.3096686 -0.2826566
-0.03107375 -0.30907023 -0.28051525
-0.030777376 -0.30864176 -0.2785615
-0.03072829 -0.3096606 -0.2780503
-0.030371357 -0.3088502 -0.275748
-0.030076439 -0.30839172 -0.2738094
-0.030027973 -0.3093977 -0.27330464
-0.029702956 -0.30873543 -0.2711952
-0.029379005 -0.30806303 -0.2690948
-0.029331159 -0.3090561 -0.2685965
-0.02900792 -0.30836302 -0.26650453
-0.028715665 -0.3078439 -0.26459455
-0.028393827 -0.30712694 -0.26251626
-0.02834688 -0.3081014 -0.26202732
-0.028056234 -0.3075541 -0.26013324
-0.027765976 -0.30699432 -0.25824395
-0.027719581 -0.30795732 -0.25776076
-0.027430326 -0.30738142 -0.25588107
-0.027111454 -0.30660203 -0.25383386
-0.027065646 -0.30755284 -0.25335678
-0.026777796 -0.30694756 -0.25149179
-0.026520567 -0.30652508 -0.24980478
-0.026203763 -0.3057027 -0.2477791
-0.02615878 -0.30663636 -0.24731062
-0.025902828 -0.30618736 -0.24563694
-0.02564751 -0.3057293 -0.24396914
-0.02560301 -0.30665293 -0.24350572
-0.025318563 -0.3059814 -0.24167539
-0.025064489 -0.3054976 -0.24002054
-0.025020506 -0.3064105 -0.2395625
-0.024737248 -0.30571 -0.23774531
-0.024514291 -0.30540282 -0.23627293
-0.024262078 -0.30488512 -0.23463665
-0.024218822 -0.30578297 -0.23418617
-0.023967165 -0.30524912 -0.23255648
-0.023715995 -0.30470523 -0.23093182
-0.023673221 -0.30559304 -0.23048636
-0.023452263 -0.30523956 -0.22903563
-0.0232317 -0.30487737 -0.2275891
-0.023189342 -0.30575657 -0.22714795
-0.022940224 -0.30517536 -0.22554378
-0.022691397 -0.30458277 -0.22394356
-0.022472546 -0.3041904 -0.22251394
-0.022430874 -0.30505532 -0.22207996
-0.022212898 -0.3046519 -0.22065823
-0.022023952 -0.30444667 -0.21940096
-0.02198266 -0.3053037 -0.21897094
-0.021736091 -0.30466372 -0.21739432
-0.021519605 -0.3042305 -0.2159879
-0.021478761 -0.30507827 -0.21556255
-0.021291481 -0.30484354 -0.21432176
-0.021075677 -0.30438724 -0.21292399
-0.020889431 -0.30413976 -0.21169247
-0.02084914 -0.30497605 -0.21127287
-0.020634329 -0.3044989 -0.20988546
-0.020419931 -0.3040132 -0.20850237
-0.020380054 -0.30484086 -0.20808707
-0.020166252 -0.3043421 -0.20671031
-0.019923927 -0.30361304 -0.20517807
-0.019884499 -0.3044314 -0.20476745
-0.019671015 -0.30390462 -0.20339769
-0.019486498 -0.3035908 -0.20218942
-0.019275144 -0.30305785 -0.20083529
-0.019236304 -0.303864 -0.2004308
-0.019053286 -0.3035362 -0.19923519
-0.018897373 -0.30341256 -0.19818985
-0.018858848 -0.3042122 -0.19778863
-0.01870438 -0.30408797 -0.1967533
-0.01852101 -0.30372438 -0.19556145
-0.018482799 -0.3045175 -0.1951635
-0.018324427 -0.30434057 -0.19411051
-0.01811238 -0.30372012 -0.19276673
-0.017963322 -0.30360037 -0.19176762
-0.017925601 -0.3043833 -0.19137478
-0.01769455 -0.3035784 -0.1899327
-0.017614292 -0.3040037 -0.18931045
-0.017576858 -0.30478066 -0.18892059
-0.017424801 -0.30460408 -0.18791077
-0.017183537 -0.30367413 -0.18642034
-0.017146492 -0.30444303 -0.18603453
-0.016797405 -0.30258283 -0.18396667
-0.016586998 -0.30187368 -0.18264934
-0.016048774 -0.29836664 -0.17957108
-0.01601294 -0.2991104 -0.17919789
-0.015909016 -0.29927072 -0.17845935
-0.015536529 -0.2971151 -0.17628224
-0.015501193 -0.29784852 -0.17591424
-0.2489123 -0.4177572 -1.7137651
-0.24867357 -0.42271256 -1.7112788
-0.24155843 -0.41774523 -1.6644653
-0.23487192 -0.4131263 -1.6204631
-0.23464537 -0.41782895 -1.6181036
-0.22855218 -0.41370866 -1.5779902
-0.22402804 -0.41174078 -1.548011
-0.22045574 -0.41106746 -1.5241818
-0.22024155 -0.41551307 -1.5219512
-0.21710631 -0.41532665 -1.5009652
-0.2142006 -0.41538894 -1.4814734
-0.21399158 -0.41972744 -1.4792966
-0.21140912 -0.42015573 -1.4619066
-0.20854081 -0.42000926 -1.4427031
-0.20833643 -0.42425147 -1.4405745
-0.20559439 -0.4241554 -1.4222084
-0.20302345 -0.42425004 -1.4049554
-0.20059066 -0.42448804 -1.3886029
-0.20039287 -0.42859322 -1.386543
-0.19782725 -0.42845324 -1.3693676
-0.1945158 -0.42686146 -1.3474513
-0.19432311 -0.4308611 -1.3454446
-0.1922019 -0.43128192 -1.3311484
-0.18755749 -0.42688617 -1.3007969
-0.18737072 -0.4307626 -1.2988518
-0.15259382 -0.36826223 -1.0768721
-0.07925681 -0.22948751 -0.61001116
-0.07623312 -0.22551607 -0.5904496
-0.076149635 -0.2272489 -0.5895801
-0.07437266 -0.2255883 -0.57796365
-0.07287617 -0.22442357 -0.5681391
-0.07279559 -0.22609603 -0.56729996
-0.071465515 -0.22518465 -0.5585457
-0.07049786 -0.22497699 -0.5520955
-0.0704193 -0.22660778 -0.5512772
-0.06954771 -0.22654764 -0.5454447
-0.0687311 -0.2265717 -0.5399656
-0.06785365 -0.22643152 -0.53410804
-0.067777276 -0.22801673 -0.5333127
-0.066897355 -0.22781904 -0.5274488
-0.0660917 -0.22775286 -0.5220594
-0.06601677 -0.22930801 -0.5212791
-0.06506755 -0.22886617 -0.51499426
-0.064120546 -0.22839129 -0.5087302
-0.06310211 -0.22771189 -0.5020238
-0.06302974 -0.22921403 -0.5012701
-0.062010456 -0.22847041 -0.49456954
-0.06085222 -0.22735247 -0.48700428
-0.060781784 -0.22881447 -0.48627073
-0.059736077 -0.22789891 -0.47942376
-0.058762275 -0.22711703 -0.47303492
-0.05869363 -0.22854182 -0.47232002
-0.05779693 -0.22789282 -0.46642438
-0.056935556 -0.22729622 -0.46075615
-0.056112394 -0.2267616 -0.45533308
-0.056046028 -0.22813915 -0.4546419
-0.055189103 -0.22746623 -0.4490172
-0.054405488 -0.2269496 -0.443856
-0.054340567 -0.22829708 -0.44317988
-0.05345152 -0.22745143 -0.43737066
-0.052707244 -0.2269571 -0.43246925
-0.052643772 -0.22827451 -0.43180823
-0.05183002 -0.22754441 -0.42648315
-0.051017717 -0.22678424 -0.4211732
-0.0502078 -0.2259966 -0.4158841
-0.0501465 -0.22726892 -0.4152457
-0.049443666 -0.22673208 -0.41062972
-0.04870751 -0.22607116 -0.4058125
-0.04864749 -0.22731696 -0.40518743
-0.047877934 -0.2265131 -0.40017185
-0.046967946 -0.22526765 -0.39429373
-0.04690944 -0.22648196 -0.39368445
-0.04582761 -0.22466934 -0.38675562
-0.04478091 -0.22291407 -0.38005206
-0.04419383 -0.22249375 -0.3761913
-0.044137806 -0.22365658 -0.37560785
-0.043694966 -0.2236393 -0.372642
-0.04360284 -0.2246821 -0.37183797
-0.04354723 -0.2258363 -0.37125883
-0.04338589 -0.22666055 -0.3700298
-0.04326008 -0.22759153 -0.36901993
-0.043204643 -0.22874217 -0.3684426
-0.043149836 -0.2298948 -0.36786914
-0.043164082 -0.23126946 -0.36771894
-0.04328377 -0.23298892 -0.36821398
-0.043228094 -0.23414458 -0.36763412
-0.04334645 -0.2358721 -0.3681188
-0.043394554 -0.2373754 -0.36817256
-0.0433386 -0.23853676 -0.36758983
-0.043491498 -0.24039935 -0.36828196
-0.043641757 -0.242263 -0.3689562
-0.04358539 -0.24343292 -0.3683692
-0.04373721 -0.24531679 -0.36905026
-0.043818384 -0.24696669 -0.36929953
-0.04386574 -0.24850565 -0.36934194
-0.04380893 -0.24968486 -0.36875027
-0.043821353 -0.25110823 -0.36857915
-0.04383364 -0.2525344 -0.36840656
-0.043776687 -0.25371647 -0.36781344
-0.043788064 -0.25514445 -0.36763445
-0.043868188 -0.25682485 -0.36787125
-0.04381103 -0.2580112 -0.36727598
-0.04385702 -0.25957635 -0.36730453
-0.043937676 -0.2612747 -0.3675417
-0.044052284 -0.2631062 -0.36798266
-0.043994714 -0.26430118 -0.36738306
-0.044142455 -0.26627034 -0.36802158
-0.04425559 -0.26811835 -0.36844972
-0.044197638 -0.26932117 -0.3678462
-0.044310674 -0.27118152 -0.36827144
-0.044456985 -0.27317917 -0.36889526
-0.044398654 -0.2743899 -0.36828777
-0.044543933 -0.2763988 -0.36890265
-0.044655256 -0.278284 -0.36931202
-0.04473231 -0.2800416 -0.3695144
-0.04467346 -0.28126308 -0.36890152
-0.044783965 -0.28316548 -0.3693023
-0.04492761 -0.28521046 -0.36989975
-0.04486838 -0.2864398 -0.36928293
-0.04501144 -0.28849787 -0.36987415
-0.045087278 -0.29028907 -0.37006244
-0.045027707 -0.29152557 -0.36944202
-0.045136426 -0.29346436 -0.3698243
-0.045210805 -0.29526758 -0.37000063
-0.045318726 -0.29721937 -0.37037528
-0.04525867 -0.29846588 -0.36974984
-0.045331966 -0.30028254 -0.36991647
-0.045370843 -0.30195805 -0.3698776
-0.04531055 -0.3032095 -0.36924967
-0.045450922 -0.30533454 -0.3698109
-0.04565622 -0.30775428 -0.37075472
-0.045829695 -0.31004772 -0.3715078
-0.04576868 -0.3113142 -0.37087232
-0.045875702 -0.31332973 -0.37122956
-0.045615576 -0.31370792 -0.36941803
-0.045554593 -0.31497374 -0.36878288
-0.04519556 -0.31488764 -0.36639124
-0.04483696 -0.3147878 -0.36400497
-0.044776596 -0.31604075 -0.36337632
-0.044187002 -0.31485122 -0.35963616
-0.043631997 -0.3137942 -0.35610422
-0.043077897 -0.31271514 -0.35258234
-0.04301912 -0.3139352 -0.35197017
-0.042499278 -0.3129783 -0.3486561
-0.04204619 -0.31231377 -0.34573725
-0.041988306 -0.31351522 -0.34513444
-0.04150363 -0.31266725 -0.34203663
-0.04105264 -0.311959 -0.3391397
-0.040995616 -0.31314254 -0.33854586
-0.04054607 -0.3124095 -0.33566302
-0.040097162 -0.31165835 -0.3327877
-0.039681736 -0.31105125 -0.33011112
-0.039625924 -0.3122097 -0.32952985
-0.03921164 -0.311579 -0.32686514
-0.038798105 -0.3109325 -0.3242083
-0.03874305 -0.3120752 -0.32363492
-0.03833066 -0.3114051 -0.32098997
-0.03791925 -0.31072035 -0.31835416
-0.037864953 -0.3118473 -0.31778872
-0.03748662 -0.31130362 -0.31534946
-0.037109196 -0.31074676 -0.31291866
-0.03670015 -0.31000718 -0.31030858
-0.03664693 -0.31111196 -0.30975425
-0.03623943 -0.31035092 -0.30715832
-0.035864286 -0.3097414 -0.30475223
-0.035811782 -0.31083116 -0.30420545
-0.035470013 -0.3103732 -0.301996
-0.03509677 -0.3097297 -0.2996087
-0.03504492 -0.31080583 -0.29906875
-0.034704544 -0.3103139 -0.29687473
-0.034364987 -0.30981013 -0.2946883
-0.03402605 -0.30929345 -0.29250836
-0.033975136 -0.31035024 -0.29197812
-0.03363693 -0.30981317 -0.28980672
-0.033299547 -0.3092643 -0.28764293
-0.03324925 -0.3103082 -0.28711915
-0.032912795 -0.30973992 -0.28496504
-0.032577172 -0.30916005 -0.28281862
-0.0325275 -0.31019107 -0.2823013
-0.032192387 -0.3095894 -0.28016216
-0.031858332 -0.3089774 -0.278032
-0.03155606 -0.3085325 -0.27608502
-0.031507283 -0.30954492 -0.27557704
-0.031174757 -0.3089015 -0.27346274
-0.030811103 -0.30805895 -0.27117532
-0.030762982 -0.30905774 -0.27067417
-0.030463254 -0.30856627 -0.26875257
-0.030132461 -0.30787513 -0.2666584
-0.030084927 -0.30886173 -0.26616338
-0.029755473 -0.30815372 -0.2640812
-0.029457565 -0.30761957 -0.26217943
-0.029160399 -0.30707517 -0.26028448
-0.029113727 -0.3080439 -0.2597984
-0.028786354 -0.30729207 -0.25773805
-0.028490596 -0.30671826 -0.25585777
-0.02844451 -0.30767483 -0.2553778
-0.028149419 -0.3070828 -0.2535053
-0.027855206 -0.3064814 -0.25164032
-0.027809672 -0.30742648 -0.2511661
-0.027516127 -0.3068069 -0.24930888
-0.027253931 -0.30637106 -0.24762896
-0.02693068 -0.3055333 -0.24561158
-0.026885975 -0.3064612 -0.245146
-0.026625222 -0.30599993 -0.24348031
-0.02636495 -0.3055286 -0.24181964
-0.026320728 -0.30644652 -0.24135907
-0.026030429 -0.30575964 -0.23953563
-0.025771398 -0.30526254 -0.23788789
-0.025727693 -0.3061697 -0.23743272
-0.025500044 -0.30586034 -0.23596181
-0.025242195 -0.30533895 -0.23432632
-0.02501541 -0.30501172 -0.23286441
-0.02497236 -0.30590528 -0.23241605
-0.024715673 -0.30535948 -0.23079275
-0.024459478 -0.30480376 -0.2291745
-0.02441691 -0.30568728 -0.22873117
-0.024191855 -0.30532426 -0.22728725
-0.023936829 -0.30474415 -0.22568119
-0.02389471 -0.30561838 -0.22524254
-0.023640411 -0.30502322 -0.22364406
-0.023416871 -0.30462873 -0.22221592
-0.023223985 -0.30443692 -0.22095706
-0.023182487 -0.30529824 -0.22052489
-0.022959659 -0.30488092 -0.2191056
-0.022707377 -0.30424342 -0.2175282
-0.02266633 -0.3050954 -0.2171007
-0.022445174 -0.30466017 -0.21569583
-0.022253787 -0.30442712 -0.2144544
-0.022063082 -0.30418923 -0.21321839
-0.022022584 -0.3050298 -0.21279663
-0.021802466 -0.3045635 -0.21140426
-0.021582752 -0.30408844 -0.21001616
-0.02154267 -0.30492043 -0.20959872
-0.021352876 -0.30464858 -0.2083749
-0.021104876 -0.30393586 -0.20683965
-0.021065207 -0.30475923 -0.20642652
-0.020846466 -0.30424476 -0.20505199
-0.020598983 -0.30350283 -0.20352544
-0.0203816 -0.3029741 -0.20216256
-0.020342588 -0.30378383 -0.20175628
-0.02015528 -0.30346614 -0.20055732
-0.019968165 -0.30314004 -0.19936113
-0.019929498 -0.30394262 -0.19895844
-0.019770484 -0.30381823 -0.19791462
-0.01961261 -0.30369464 -0.19687828
-0.019574227 -0.30449137 -0.19647853
-0.019386893 -0.30412596 -0.19528793
-0.019200368 -0.30375686 -0.19410339
-0.01901304 -0.30337146 -0.19291641
-0.01897518 -0.30415732 -0.1925221
-0.01881318 -0.30395785 -0.19147168
-0.018597808 -0.3033245 -0.19014099
-0.018560303 -0.30410296 -0.1897504
-0.018468298 -0.30444327 -0.18907274
-0.018313628 -0.3042739 -0.18806607
-0.018276326 -0.30504814 -0.18767759
-0.018047227 -0.3042608 -0.18628238
-0.017665345 -0.30221105 -0.18408857
-0.017436815 -0.30139673 -0.18270203
-0.017400382 -0.30215296 -0.18232258
-0.016864652 -0.29877517 -0.17933473
-0.016781798 -0.29912812 -0.17871617
-0.016746014 -0.29987082 -0.1783435
-0.016363418 -0.29770577 -0.1761655
-0.2543226 -0.4202683 -1.7120577
-0.24705894 -0.41536534 -1.6652237
-0.24682648 -0.42019033 -1.6628027
-0.24000637 -0.41550937 -1.6188427
-0.23378617 -0.41144398 -1.5787117
-0.22916874 -0.4095165 -1.5487196
-0.22895148 -0.4140259 -1.546457
-0.22530948 -0.41332027 -1.5226499
-0.22211076 -0.41316137 -1.5016551
-0.22189927 -0.41755125 -1.4994524
-0.21893741 -0.41758746 -1.4799784
-0.21630323 -0.41803822 -1.4625813
-0.2160964 -0.42233127 -1.4604273
-0.2131725 -0.42215896 -1.4412413
-0.21037498 -0.42208698 -1.4228675
-0.20775223 -0.42220402 -1.4056072
-0.20755237 -0.42635205 -1.403526
-0.20507278 -0.42656833 -1.3871883
-0.20245521 -0.42645085 -1.3700056
-0.20225962 -0.43051046 -1.3679687
-0.19888265 -0.42888823 -1.3460732
-0.19671904 -0.4293275 -1.3317711
-0.19652812 -0.4332899 -1.329783
-0.1917898 -0.42885053 -1.2994611
-0.15624993 -0.36668035 -1.0773761
-0.081297174 -0.2286047 -0.61029243
-0.08121094 -0.23039448 -0.6093944
-0.07812508 -0.22639419 -0.58985245
-0.076310605 -0.2247498 -0.5782308
-0.07622871 -0.22644976 -0.57737786
-0.074702196 -0.22527109 -0.5675628
-0.07334437 -0.22437172 -0.55880475
-0.07326497 -0.22601984 -0.5579778
-0.07227842 -0.22580339 -0.5515335
-0.071389176 -0.2257509 -0.5456986
-0.0705561 -0.22578207 -0.5402172
-0.07047897 -0.22738294 -0.539414
-0.06958442 -0.22723483 -0.5335618
-0.06868654 -0.2270449 -0.5276955
-0.06861092 -0.22861436 -0.526908
-0.06778963 -0.22854094 -0.5215235
-0.066820815 -0.22810759 -0.51523596
-0.06674672 -0.22964554 -0.5144643
-0.06578096 -0.22916193 -0.5082062
-0.06474219 -0.2284731 -0.5015062
-0.06370161 -0.22773868 -0.49480268
-0.063630134 -0.22922216 -0.49405834
-0.06244846 -0.22809334 -0.4865005
-0.061380748 -0.22718729 -0.4796505
-0.06131124 -0.22863 -0.47892663
-0.060317878 -0.22783905 -0.47254395
-0.05940244 -0.22719815 -0.46664572
-0.059334587 -0.22860649 -0.46593907
-0.058456004 -0.22800191 -0.4602763
-0.057616424 -0.22745967 -0.4548584
-0.05674155 -0.22679451 -0.4492312
-0.05667594 -0.22815631 -0.44854793
-0.055876687 -0.22763245 -0.44339168
-0.054968864 -0.2267949 -0.43757987
-0.054904737 -0.22812591 -0.43691203
-0.05414561 -0.2276247 -0.43201527
-0.05331472 -0.22690201 -0.42668787
-0.05325197 -0.22820438 -0.4260344
-0.052423254 -0.2274366 -0.42072958
-0.05159694 -0.22664134 -0.4154457
-0.050879393 -0.22611088 -0.41082767
-0.050818715 -0.22737029 -0.41019574
-0.050067704 -0.22670248 -0.40538323
-0.04928183 -0.22590566 -0.4003654
-0.0492225 -0.22713716 -0.3997475
-0.048293754 -0.225883 -0.39387527
-0.04718832 -0.22408059 -0.38694322
-0.047130812 -0.2252742 -0.3863443
-0.046062235 -0.22350879 -0.37964767
-0.04546341 -0.22308302 -0.3757906
-0.045011614 -0.22306961 -0.37282354
-0.04495597 -0.22422457 -0.37224403
-0.04486303 -0.225267 -0.37144023
-0.044699233 -0.2260923 -0.3702109
-0.044643726 -0.22724435 -0.36963284
-0.04451635 -0.22817461 -0.36862344
-0.04446156 -0.22932726 -0.36804998
-0.044406123 -0.23047788 -0.36747265
-0.044421926 -0.23185328 -0.36732194
-0.044545535 -0.23357454 -0.36781576
-0.044667955 -0.23530032 -0.36830097
-0.044612106 -0.23645954 -0.36771935
-0.04466254 -0.23796391 -0.36777237
-0.044820335 -0.23982438 -0.36846516
-0.044764176 -0.24099004 -0.36788028
-0.044919077 -0.24285585 -0.36855307
-0.045075793 -0.24473761 -0.3692348
-0.04516021 -0.24638611 -0.36948454
-0.045103505 -0.24756315 -0.36889395
-0.04515321 -0.24910319 -0.3689356
-0.04516727 -0.25052583 -0.36876473
-0.04511039 -0.25170648 -0.36817232
-0.045124244 -0.2531334 -0.36799926
-0.045137234 -0.25456068 -0.36782047
-0.045080215 -0.25574416 -0.36722663
-0.045163456 -0.25742602 -0.36746246
-0.045211896 -0.2589901 -0.36749133
-0.045295835 -0.26068705 -0.36772895
-0.045238435 -0.2618784 -0.36713117
-0.045356963 -0.26371172 -0.36757088
-0.045509603 -0.26567882 -0.36821005
-0.045451827 -0.26687804 -0.36760834
-0.045568872 -0.26872787 -0.36803523
-0.045686 -0.27058643 -0.36846107
-0.045627873 -0.27179286 -0.36785573
-0.045778874 -0.2737927 -0.36847806
-0.045929044 -0.27579948 -0.36909363
-0.046044447 -0.2776829 -0.36950356
-0.045985736 -0.27890152 -0.3688921
-0.04606592 -0.28066057 -0.3690935
-0.046180505 -0.2825612 -0.36949486
-0.046121486 -0.28378624 -0.36888018
-0.046269804 -0.28583342 -0.36947617
-0.046417758 -0.28788936 -0.37006804
-0.046358325 -0.28912297 -0.36944908
-0.0464373 -0.29091564 -0.36963636
-0.0465501 -0.29285267 -0.37001923
-0.046627738 -0.2946545 -0.37019598
-0.046567854 -0.2958974 -0.36957234
-0.04667968 -0.29785103 -0.36994576
-0.046756223 -0.2996663 -0.37011284
-0.04669603 -0.30091563 -0.36948597
-0.04673722 -0.30259222 -0.3694464
-0.0468825 -0.30471513 -0.3700083
-0.046821997 -0.30597088 -0.3693782
-0.047033515 -0.3083935 -0.37032005
-0.047212485 -0.3106895 -0.3710714
-0.047323633 -0.31270322 -0.37142918
-0.047262438 -0.31397334 -0.3707919
-0.046997633 -0.31434935 -0.36898184
-0.04663127 -0.3142664 -0.36658922
-0.04657059 -0.31552583 -0.3659573
-0.046204966 -0.31542274 -0.36357322
-0.045602314 -0.31423885 -0.3598313
-0.045542497 -0.31548035 -0.35920838
-0.044975776 -0.31441787 -0.35568014
-0.044409957 -0.31333336 -0.3521619
-0.043878686 -0.31238148 -0.34884626
-0.043820392 -0.31359148 -0.34823912
-0.04335792 -0.3129226 -0.34532326
-0.042862635 -0.31207925 -0.342224
-0.042805202 -0.31327134 -0.34162587
-0.042344827 -0.31255874 -0.33873188
-0.041885488 -0.31182995 -0.33584768
-0.041828882 -0.31300485 -0.33525816
-0.041370593 -0.3122494 -0.3323858
-0.040946566 -0.3116383 -0.32971194
-0.040523306 -0.31101146 -0.327046
-0.040467873 -0.31216204 -0.32646868
-0.04004574 -0.31151155 -0.32381454
-0.039624374 -0.3108453 -0.32116833
-0.0395697 -0.31198016 -0.3205989
-0.03914969 -0.31129143 -0.31796584
-0.03876319 -0.31075126 -0.31552547
-0.03870924 -0.31187108 -0.3149636
-0.038324 -0.31131056 -0.31253526
-0.037906356 -0.31056702 -0.30992788
-0.037489895 -0.30980986 -0.30733073
-0.037437044 -0.31090677 -0.30678037
-0.037054077 -0.3102936 -0.30437672
-0.036704957 -0.30983883 -0.30216625
-0.036652766 -0.31092212 -0.30162272
-0.036271706 -0.31027502 -0.29923788
-0.03592398 -0.30978626 -0.29704285
-0.035872445 -0.31085593 -0.29650614
-0.03552585 -0.3103489 -0.29432195
-0.03517988 -0.30982897 -0.2921442
-0.034834325 -0.30929506 -0.28997183
-0.03478372 -0.31034544 -0.2894448
-0.0344393 -0.30979326 -0.2872832
-0.034095496 -0.30922818 -0.28512812
-0.03404551 -0.31026566 -0.28460756
-0.033702858 -0.3096825 -0.28246334
-0.033360396 -0.309084 -0.2803232
-0.033019 -0.3084752 -0.278192
-0.032969944 -0.30949333 -0.27768117
-0.032661412 -0.30904552 -0.27573615
-0.03232155 -0.30840528 -0.27362084
-0.032273084 -0.30941126 -0.27311608
-0.031901613 -0.30856505 -0.27083117
-0.031595357 -0.30807644 -0.26890868
-0.03154751 -0.3090695 -0.26841038
-0.031209676 -0.3083751 -0.26631844
-0.030872881 -0.30767024 -0.26423526
-0.030568438 -0.30713895 -0.2623326
-0.03052149 -0.30811337 -0.26184365
-0.030218069 -0.30756608 -0.25995067
-0.029883357 -0.30681744 -0.25788927
-0.029836996 -0.3077797 -0.25740644
-0.02953498 -0.307203 -0.25552815
-0.029233355 -0.30661383 -0.25365472
-0.029187545 -0.30756462 -0.25317764
-0.028887084 -0.3069603 -0.25131464
-0.02858701 -0.30634356 -0.24945652
-0.028319096 -0.3059102 -0.24777582
-0.02827408 -0.30684456 -0.247307
-0.0279438 -0.30600348 -0.24529184
-0.027677333 -0.30554467 -0.24362537
-0.027632868 -0.30646762 -0.24316229
-0.027367124 -0.30599374 -0.24150334
-0.027070295 -0.30530968 -0.23967901
-0.027026348 -0.30622184 -0.23922132
-0.026761845 -0.30572224 -0.2375753
-0.026529301 -0.305415 -0.23610373
-0.026265735 -0.3048961 -0.23446743
-0.026222479 -0.30579394 -0.23401694
-0.025991004 -0.3054645 -0.2325565
-0.025728604 -0.3049212 -0.2309324
-0.025685795 -0.30580974 -0.23048657
-0.025424127 -0.30525148 -0.22887005
-0.025194174 -0.30489057 -0.22742543
-0.025151815 -0.3057698 -0.22698428
-0.024891317 -0.30518714 -0.22537994
-0.024631305 -0.3045945 -0.22378068
-0.024402868 -0.30420208 -0.22235188
-0.024361197 -0.305067 -0.2219179
-0.024164405 -0.3048734 -0.22066027
-0.02393667 -0.30445817 -0.21924031
-0.02389538 -0.3053152 -0.21881028
-0.023637626 -0.30467516 -0.21723461
-0.023411581 -0.30424199 -0.21582907
-0.02337074 -0.30508974 -0.21540372
-0.023175433 -0.30485487 -0.21416353
-0.02298082 -0.3046152 -0.21292874
-0.022755804 -0.30415097 -0.2115357
-0.022715513 -0.30498725 -0.2111161
-0.022491107 -0.30451006 -0.2097295
-0.022297218 -0.30423996 -0.20850511
-0.022257308 -0.30506834 -0.20808946
-0.022003846 -0.3043531 -0.20655593
-0.021780191 -0.30384073 -0.20518073
-0.021740729 -0.30465978 -0.20476978
-0.021487769 -0.30391535 -0.20324492
-0.02126569 -0.30338442 -0.20188354
-0.021074291 -0.3030685 -0.20068403
-0.021035451 -0.30387464 -0.20027953
-0.020844411 -0.30354676 -0.19908458
-0.020682069 -0.3034238 -0.1980403
-0.020643543 -0.30422342 -0.19763908
-0.020482501 -0.3040984 -0.19660375
-0.02029103 -0.30373475 -0.19541259
-0.02025282 -0.30452785 -0.19501464
-0.020062344 -0.30415693 -0.19383135
-0.019871036 -0.30376968 -0.19264562
-0.01970557 -0.30357173 -0.19159472
-0.019667855 -0.30435452 -0.19120194
-0.01944773 -0.30371895 -0.18987276
-0.019354198 -0.30405995 -0.18919489
-0.019316757 -0.30483705 -0.18880497
-0.019158937 -0.30466625 -0.18779927
-0.018924447 -0.30388123 -0.18640333
-0.018887373 -0.30465072 -0.18601725
-0.018496197 -0.3025967 -0.18382634
-0.01826249 -0.30177993 -0.18244144
-0.017712658 -0.29840824 -0.17945164
-0.017676821 -0.2991521 -0.17907842
-0.017592693 -0.2995045 -0.17846024
-0.017200263 -0.29734367 -0.17628087
-0.017164897 -0.29807776 -0.17591254
-0.26016724 -0.4180873 -1.714047
-0.25992832 -0.42304623 -1.7115588
-0.25217503 -0.41759986 -1.6626214
-0.24566679 -0.41361007 -1.6214311
-0.24543996 -0.41831815 -1.6190687
-0.23843502 -0.41324535 -1.5748839
-0.23357235 -0.41104126 -1.5439597
-0.22977443 -0.4102337 -1.5196323
-0.22956078 -0.4146683 -1.5174072
-0.22655001 -0.41484773 -1.497965
-0.22356385 -0.41495523 -1.4786952
-0.22335511 -0.41928786 -1.4765213
-0.22054121 -0.4195036 -1.4583412
-0.2175426 -0.41932088 -1.4390467
-0.21733862 -0.4235545 -1.4369224
-0.21464182 -0.4237008 -1.4195105
-0.21198963 -0.42382213 -1.402391
-0.20946437 -0.42405918 -1.3860674
-0.20926684 -0.42815903 -1.3840103
-0.2068648 -0.4284688 -1.3684672
-0.20313081 -0.42637375 -1.3447978
-0.2029384 -0.43036765 -1.342794
-0.20058149 -0.4305101 -1.3275738
-0.19573429 -0.4260844 -1.2971742
-0.19554795 -0.42995203 -1.2952336
-0.12250995 -0.2997898 -0.8493059
-0.083774485 -0.23048471 -0.612862
-0.08019011 -0.22570783 -0.59066993
-0.08010654 -0.22744234 -0.58979964
-0.07824458 -0.22576089 -0.5781187
-0.07660941 -0.22444728 -0.56782925
-0.07652883 -0.22611976 -0.5669901
-0.075143814 -0.22520682 -0.5582366
-0.07406818 -0.22486007 -0.55136925
-0.073989674 -0.22648957 -0.5505516
-0.073146366 -0.22655621 -0.5451028
-0.0723039 -0.22659312 -0.5396651
-0.07146289 -0.22660156 -0.5342422
-0.07138645 -0.2281881 -0.53344613
-0.07047609 -0.2280017 -0.5276134
-0.069567405 -0.22778437 -0.5217975
-0.069492474 -0.2293396 -0.52101713
-0.06850493 -0.2288977 -0.51473576
-0.06759064 -0.22857967 -0.5089029
-0.06653057 -0.22790143 -0.50219923
-0.06645813 -0.22940502 -0.5014448
-0.06532852 -0.22850683 -0.49433494
-0.064155854 -0.22746551 -0.4869748
-0.06408538 -0.22892828 -0.48624083
-0.063030325 -0.22809209 -0.47959968
-0.062017575 -0.22731398 -0.47322017
-0.061948862 -0.2287402 -0.47250456
-0.06101471 -0.22809072 -0.46660703
-0.060081173 -0.227406 -0.4607202
-0.059223782 -0.22687034 -0.45529577
-0.05915738 -0.22824858 -0.45460424
-0.05826526 -0.22757615 -0.4489821
-0.057412803 -0.22696774 -0.44360334
-0.057347883 -0.2283152 -0.44292724
-0.05646025 -0.22756658 -0.43734854
-0.055648234 -0.22697686 -0.43222693
-0.055584762 -0.22829427 -0.4315659
-0.05470019 -0.22746666 -0.42602208
-0.053890783 -0.2268015 -0.42093167
-0.053046383 -0.22601108 -0.4156397
-0.052985087 -0.2272834 -0.4150013
-0.05218131 -0.22655165 -0.40995994
-0.0513765 -0.22578475 -0.40491864
-0.05131658 -0.2270284 -0.4042946
-0.050479762 -0.22612429 -0.39907324
-0.04952989 -0.2248711 -0.39318985
-0.049471524 -0.22608255 -0.392582
-0.048382055 -0.22437559 -0.38588548
-0.04740117 -0.22293292 -0.37983835
-0.046790823 -0.22251461 -0.37598398
-0.0467348 -0.22367747 -0.3754005
-0.046419077 -0.22408234 -0.3732879
-0.04636279 -0.22523865 -0.372704
-0.046307012 -0.22639644 -0.37212306
-0.046141323 -0.22722612 -0.37089637
-0.046011597 -0.22815906 -0.3698818
-0.04595599 -0.22931327 -0.36930266
-0.045973174 -0.23068966 -0.36915028
-0.045954335 -0.23195857 -0.36878625
-0.04611834 -0.23379546 -0.36949226
-0.046062425 -0.23495612 -0.3689099
-0.04615296 -0.23657699 -0.36918363
-0.04627844 -0.23831509 -0.36966017
-0.04622221 -0.2394822 -0.36907458
-0.046383157 -0.24134651 -0.36975563
