ply
format ascii 1.0
element vertex 1444
property float x
property float y
property float z
end_header
1.140697 -0.33109954 -0.4343556
1.1381015 -0.3308405 -0.4329949
1.1375154 -0.33220962 -0.43292785
1.1338499 -0.33103332 -0.43086982
1.1312698 -0.33072653 -0.42950895
1.1306926 -0.3320751 -0.42944288
1.1274036 -0.33113748 -0.42761615
1.1246637 -0.33063588 -0.42614132
1.1217494 -0.329961 -0.42454886
1.1211847 -0.3312802 -0.42448425
1.1184573 -0.33072793 -0.4230073
1.1159195 -0.33031642 -0.42165026
1.115362 -0.33161867 -0.42158645
1.1126577 -0.33102673 -0.4201145
1.1097776 -0.3302545 -0.41852307
1.109228 -0.33153832 -0.4184602
1.1063625 -0.33073923 -0.41687158
1.1036829 -0.33008194 -0.41540122
1.1010109 -0.32940695 -0.41393173
1.100473 -0.3306635 -0.4138702
1.0976354 -0.3297988 -0.4122847
1.0949825 -0.3290788 -0.41081735
1.0944525 -0.33031696 -0.4107567
1.091811 -0.3295704 -0.4092906
1.0891792 -0.32880825 -0.40782687
1.0886567 -0.33002874 -0.4077671
1.0860339 -0.32923803 -0.40630314
1.0834188 -0.32842955 -0.40484005
1.0809857 -0.32777238 -0.40349472
1.0804743 -0.3289671 -0.40343618
1.0778803 -0.32811764 -0.40197694
1.0752913 -0.32724804 -0.40051684
1.0747874 -0.3284251 -0.40045917
1.0722127 -0.3275319 -0.39900237
1.0699848 -0.32696232 -0.397776
1.0694879 -0.32812315 -0.39771917
1.0671036 -0.3273625 -0.39638123
1.0647234 -0.3265826 -0.3950421
1.0625178 -0.32595962 -0.3938181
1.062031 -0.32709688 -0.3937624
1.0598383 -0.32645512 -0.39254174
1.0576552 -0.32580212 -0.391324
1.0571747 -0.32692468 -0.39126903
1.0549945 -0.3262426 -0.39004788
1.052827 -0.32555267 -0.3888319
1.0523528 -0.3266605 -0.38877764
1.0503602 -0.32612735 -0.38767684
1.0483763 -0.32558414 -0.38657868
1.0465603 -0.32520512 -0.38559332
1.0460943 -0.32629377 -0.38554
1.0437915 -0.32535014 -0.38421267
1.0419961 -0.3249474 -0.38323388
1.0415361 -0.3260221 -0.38318124
1.0397477 -0.32560092 -0.38220283
1.0377934 -0.3249745 -0.38110575
1.0373387 -0.32603672 -0.38105372
1.0355586 -0.3255802 -0.38007355
1.0337853 -0.32511404 -0.37909532
1.0321805 -0.32482535 -0.3782323
1.0317332 -0.3258706 -0.3781811
1.0301352 -0.3255668 -0.37731913
1.0285405 -0.32525125 -0.37645674
1.0280974 -0.3262862 -0.37640604
1.0265108 -0.32595703 -0.3755456
1.0249275 -0.3256161 -0.37468472
1.0244889 -0.3266407 -0.37463453
1.0229137 -0.32628608 -0.37377554
1.0215036 -0.32611725 -0.37303153
1.0199369 -0.3257429 -0.37217355
1.0195047 -0.32675275 -0.3721241
1.0179462 -0.32636493 -0.371268
1.01655 -0.32616344 -0.3705255
1.0161217 -0.32716373 -0.3704765
1.0147309 -0.3269489 -0.36973462
1.0133455 -0.32672733 -0.3689943
1.0118043 -0.3262932 -0.3681392
1.0113822 -0.32727954 -0.3680909
1.0098476 -0.32682997 -0.36723658
1.0086349 -0.32678193 -0.366613
1.0082165 -0.3277594 -0.36656514
1.0068504 -0.32749292 -0.3658271
1.0054861 -0.32721496 -0.36508796
1.0050715 -0.3281836 -0.3650405
1.0037149 -0.32789508 -0.3643036
1.0023597 -0.32759464 -0.36356542
1.0011646 -0.327496 -0.36294225
1.0007553 -0.32845205 -0.36289543
0.99941146 -0.32813305 -0.36215985
0.9979189 -0.32759607 -0.36131206
0.9975138 -0.3285426 -0.3612657
0.99633145 -0.32841122 -0.36064363
0.9951553 -0.32827675 -0.36002415
0.9947533 -0.32921585 -0.35997817
0.9934282 -0.32885355 -0.35924473
0.992256 -0.328694 -0.3586231
0.9910955 -0.32853892 -0.3580081
0.9906985 -0.32946628 -0.35796267
0.98968565 -0.3295063 -0.35745537
0.9888321 -0.32976744 -0.35706618
0.9884374 -0.3306896 -0.35702103
0.98758596 -0.33094308 -0.35663164
0.9864338 -0.33074647 -0.35601383
0.9860416 -0.3316627 -0.35596895
0.9847316 -0.33121327 -0.3552286
0.9832987 -0.33056504 -0.35439238
0.9821555 -0.330336 -0.35377374
0.981769 -0.33123896 -0.35372952
0.9813774 -0.33213413 -0.35368142
0.9803888 -0.33211675 -0.35317683
0.9800036 -0.33301675 -0.35313275
0.9793766 -0.3335431 -0.3529031
2.3794188 -0.410994 -1.0824748
2.3574398 -0.41163597 -1.0713533
2.3552501 -0.41675127 -1.0711027
2.3332984 -0.41718552 -1.05996
2.3077586 -0.4166134 -1.0468129
2.283141 -0.41609624 -1.0341464
2.2810438 -0.42099532 -1.0339065
2.2563183 -0.42020452 -1.0211384
2.2283666 -0.41842467 -1.006554
2.2263384 -0.4231631 -1.0063219
2.1964018 -0.42057595 -0.9905863
2.1600013 -0.4160616 -0.9712207
2.1580617 -0.42059284 -0.97099876
2.1175413 -0.41456753 -0.94927156
2.0761108 -0.4080017 -0.9269876
2.033406 -0.4007816 -0.9039416
2.0316367 -0.40491515 -0.9037391
2.0104353 -0.40344027 -0.8926556
1.9965049 -0.40394467 -0.88562334
1.994781 -0.40797204 -0.88542604
1.9865485 -0.410047 -0.8815717
1.9792893 -0.41236803 -0.8782565
1.9775828 -0.41635478 -0.87806123
1.9728886 -0.41941106 -0.8761814
1.9684843 -0.42253575 -0.8744614
1.9637189 -0.42552438 -0.87253374
1.962025 -0.42948148 -0.87233996
1.9559783 -0.43201566 -0.86968035
1.9480062 -0.43387914 -0.86592317
1.9463279 -0.4378 -0.8657311
1.936482 -0.4389555 -0.8608964
1.9276 -0.44037703 -0.85659933
1.9259443 -0.4442452 -0.85640985
1.9166521 -0.44543785 -0.8518644
1.9047109 -0.44563144 -0.8457957
1.895934 -0.44687703 -0.84152246
1.8943151 -0.45065895 -0.8413372
1.8925835 -0.4543995 -0.8410872
1.8824688 -0.4550352 -0.8360269
1.8808627 -0.45878735 -0.83584315
1.8829474 -0.46393567 -0.83778226
1.8921337 -0.47182903 -0.8438159
1.8905061 -0.4756315 -0.84362966
1.3858 -0.28300393 -0.55304724
1.2116011 -0.2166717 -0.452779
1.1982595 -0.21304329 -0.44534594
1.1976606 -0.21444231 -0.44527742
1.187845 -0.21209167 -0.439863
1.1832905 -0.2118271 -0.43749088
1.1827115 -0.21317987 -0.43742463
1.1767377 -0.21227093 -0.43421796
1.171808 -0.21175922 -0.43161228
1.1712437 -0.21307762 -0.43154773
1.1656924 -0.21224284 -0.42856956
1.1611869 -0.21182209 -0.426196
1.1562866 -0.21119423 -0.42358544
1.1557424 -0.21246551 -0.4235232
1.1512679 -0.2119735 -0.42115337
1.1468073 -0.21145442 -0.41878605
1.146275 -0.21269773 -0.41872516
1.1424478 -0.21242064 -0.4167226
1.1382216 -0.21192947 -0.41447973
1.1377002 -0.21314774 -0.41442007
1.134106 -0.21290855 -0.41254303
1.1301098 -0.21245024 -0.41042328
1.1261301 -0.21196975 -0.40830827
1.1256241 -0.21315196 -0.40825036
1.1220658 -0.21283327 -0.4063781
1.1185138 -0.212491 -0.4045051
1.1180172 -0.21365112 -0.4044483
1.1152946 -0.21368729 -0.4030633
1.1131831 -0.214015 -0.40203997
1.1112745 -0.21443258 -0.40113562
1.1107861 -0.21557356 -0.40107974
1.1107022 -0.21692592 -0.40126637
1.1103964 -0.21816503 -0.40132046
1.109907 -0.21930817 -0.4012645
1.1108209 -0.22120361 -0.40205312
1.1123154 -0.22342582 -0.403194
1.1118208 -0.22458142 -0.40313742
1.1133077 -0.22682644 -0.4042782
1.1152109 -0.22932036 -0.40567398
1.1169 -0.23171662 -0.40694377
1.1163949 -0.23289649 -0.40688598
1.1182773 -0.23543279 -0.40827832
1.1201447 -0.2379826 -0.40966532
1.1196321 -0.23918018 -0.40960667
1.1214943 -0.24176009 -0.41099608
1.1231529 -0.24424267 -0.41226494
1.122633 -0.24545726 -0.41220546
1.1244705 -0.24807712 -0.41358903
1.1261034 -0.25059626 -0.41485098
1.1277287 -0.25313118 -0.41611174
1.1271981 -0.2543708 -0.41605103
1.1288122 -0.25692955 -0.41731006
1.1306148 -0.25962552 -0.41868868
1.1300769 -0.26088208 -0.41862714
1.1322359 -0.2638361 -0.42023173
1.1340089 -0.26657128 -0.42160195
1.1334629 -0.26784685 -0.4215395
1.135637 -0.270874 -0.4231642
1.1377802 -0.2739075 -0.42477417
1.1399324 -0.27697328 -0.42639422
1.1393732 -0.2782798 -0.42633024
1.1411192 -0.281116 -0.42770383
1.1423192 -0.28360984 -0.42874026
1.1417532 -0.284932 -0.42867553
1.1427522 -0.28731567 -0.42959052
1.1437043 -0.28968298 -0.43047884
1.1431333 -0.29101703 -0.4304135
1.143723 -0.29315594 -0.4310779
1.1446612 -0.2955499 -0.43196365
1.1454084 -0.29782465 -0.43273148
1.1448307 -0.29917422 -0.43266538
1.145382 -0.30132946 -0.43331295
1.1461158 -0.3036272 -0.4340779
1.145534 -0.3049863 -0.43401134
1.1462635 -0.30730125 -0.43477702
1.1468039 -0.30949074 -0.43542472
1.1462181 -0.3108594 -0.4353577
1.1471398 -0.31335032 -0.4362515
1.1478462 -0.31569552 -0.43701053
1.1485775 -0.31807297 -0.43778765
1.1479846 -0.31945786 -0.43771982
1.1490862 -0.3221396 -0.4387379
1.1501198 -0.32478678 -0.43971536
1.1495214 -0.32618487 -0.4396469
1.1505353 -0.32884267 -0.44061613
1.1495118 -0.32991496 -0.4402751
1.1489114 -0.33131778 -0.4402064
1.1468213 -0.33153313 -0.43917504
1.1444235 -0.33148536 -0.43794176
1.1409055 -0.330513 -0.4359791
1.1403157 -0.3318909 -0.43591163
1.1375425 -0.33148086 -0.43442506
1.1340647 -0.3304661 -0.43247575
1.1334836 -0.33182353 -0.4324093
1.1307281 -0.33136463 -0.43092346
1.1277966 -0.33073366 -0.42931846
1.1272235 -0.3320727 -0.42925286
1.1243062 -0.3314147 -0.42765054
1.1215732 -0.33088857 -0.42616475
1.11867 -0.33019146 -0.42456305
1.1181089 -0.33150253 -0.42449883
1.1153971 -0.33093336 -0.4230166
1.1128668 -0.33049944 -0.42165005
1.1123128 -0.3317936 -0.42158666
1.1094384 -0.3310195 -0.41998658
1.1065698 -0.33022398 -0.41838577
1.106024 -0.33149895 -0.4183233
1.1033477 -0.33083817 -0.41684368
1.1006789 -0.33015978 -0.41536486
1.0978408 -0.3293009 -0.41376895
1.0973067 -0.33054864 -0.41370782
1.0946571 -0.3298252 -0.4122311
1.0918417 -0.3289215 -0.41063917
1.0913155 -0.3301508 -0.41057897
1.0888578 -0.32954645 -0.40922055
1.0860621 -0.32859632 -0.40763083
1.083444 -0.32778984 -0.40615615
1.0829291 -0.32899264 -0.40609723
1.0803279 -0.328165 -0.40462762
1.0777345 -0.32731992 -0.403159
1.0772271 -0.32850504 -0.40310097
1.0746453 -0.3276337 -0.40163383
1.0722407 -0.3269141 -0.40028307
1.0717406 -0.32808232 -0.40022585
1.0693465 -0.32733846 -0.3988763
1.066963 -0.32658195 -0.39752996
1.0645828 -0.32580575 -0.39618203
1.0640932 -0.32694966 -0.396126
1.0618907 -0.32632214 -0.39489412
1.0598724 -0.32586485 -0.3937852
1.0593888 -0.32699475 -0.39372987
1.0573679 -0.32650623 -0.3926144
1.0551941 -0.32583606 -0.3913899
1.0547165 -0.32695195 -0.39133525
1.0525517 -0.32625952 -0.39011165
1.050724 -0.3259089 -0.38911822
1.0485711 -0.32518816 -0.3878958
1.0481023 -0.32628348 -0.38784215
1.045961 -0.32554328 -0.38662246
1.0441548 -0.32515123 -0.38563296
1.0436916 -0.32623333 -0.38557997
1.0418953 -0.3258262 -0.38459304
1.0397727 -0.32503515 -0.3833742
1.0393152 -0.326104 -0.38332185
1.0375295 -0.3256628 -0.38233447
1.0357506 -0.32521212 -0.38134906
1.0341387 -0.3249359 -0.38047856
1.0336884 -0.3259878 -0.38042703
1.0319221 -0.32550862 -0.37944317
1.0303239 -0.3252084 -0.37857556
1.0298783 -0.32624918 -0.37852457
1.0281231 -0.32574004 -0.37754133
1.0265352 -0.3254121 -0.37667426
1.0260944 -0.32644185 -0.37662384
1.0245146 -0.32610017 -0.37575856
1.0229393 -0.32574844 -0.374894
1.0213671 -0.32538462 -0.37402883
1.0209329 -0.32639894 -0.37397915
1.0195302 -0.32622033 -0.37323213
1.0181297 -0.32603088 -0.3724844
1.0176992 -0.32703635 -0.37243512
1.0161453 -0.32663444 -0.37157294
1.0147562 -0.32642403 -0.3708274
1.0143299 -0.32741994 -0.37077862
1.0129446 -0.32719415 -0.37003246
1.0114074 -0.32675985 -0.36917326
1.0100299 -0.32651556 -0.36842796
1.0096096 -0.32749742 -0.36837986
1.0082396 -0.3272421 -0.36763653
1.0070295 -0.3271824 -0.36700806
1.0066127 -0.32815617 -0.36696035
1.0052497 -0.3278768 -0.36621654
1.0037377 -0.32738486 -0.36536044
1.003325 -0.32834905 -0.3653132
1.0021282 -0.32825726 -0.3646861
1.0007806 -0.3279497 -0.3639453
0.9994341 -0.32762966 -0.36320302
0.9990268 -0.32858133 -0.3631564
0.9976885 -0.3282514 -0.3624166
0.996354 -0.32791263 -0.36167717
0.9959504 -0.32885545 -0.361631
0.99477565 -0.32871914 -0.36100763
0.9934504 -0.3283591 -0.36026937
0.9930503 -0.32929382 -0.3602236
0.99188393 -0.32913855 -0.35960126
0.99072057 -0.3289757 -0.3589792
0.98986053 -0.32923707 -0.3585841
0.9894645 -0.3301622 -0.35853878
0.9886052 -0.3304138 -0.3581424
0.987752 -0.33066705 -0.35774946
0.987358 -0.3315877 -0.35770437
0.98621523 -0.3314024 -0.357089
0.98490417 -0.330955 -0.35634318
0.9845136 -0.33186752 -0.3562985
0.98308367 -0.33121946 -0.3554578
0.98209184 -0.3312161 -0.3549505
0.981551 -0.3318872 -0.35478804
0.98116416 -0.33279088 -0.35474378
0.9795889 -0.3318717 -0.35378286
0.9796557 -0.33346507 -0.35408744
0.9792704 -0.3343651 -0.35404336
2.3800309 -0.4083638 -1.0884235
2.3778129 -0.41354558 -1.0881697
2.3557556 -0.4141345 -1.0769227
2.3333037 -0.4144873 -1.0654323
2.3311422 -0.41953725 -1.065185
2.3060694 -0.41903406 -1.0521996
2.2813916 -0.41846094 -1.0394055
2.2575626 -0.41793492 -1.027056
2.255496 -0.42276287 -1.0268196
2.2275171 -0.42093074 -1.0121114
2.198147 -0.41854495 -0.99659294
2.1961563 -0.4231961 -0.99636513
2.1629224 -0.41947046 -0.97862923
2.1207294 -0.4130771 -0.95582736
2.1188405 -0.41748986 -0.9556112
2.076605 -0.41063353 -0.93270814
2.035308 -0.40374014 -0.9102816
2.0114458 -0.4015505 -0.8976303
2.0097032 -0.4056219 -0.89743084
1.9927932 -0.40522847 -0.8886638
1.9833968 -0.40696025 -0.8841262
1.981687 -0.41095474 -0.8839305
1.9730878 -0.41284254 -0.8798298
1.9687434 -0.41599497 -0.87813455
1.9660519 -0.41964522 -0.87737495
1.9643574 -0.4236041 -0.87718105
1.9606532 -0.4269176 -0.8758427
1.9559271 -0.42988336 -0.8739192
1.95424 -0.4338251 -0.8737261
1.9462885 -0.435682 -0.86995333
1.9357195 -0.43660843 -0.86467445
1.9340544 -0.44049838 -0.8644839
1.9251597 -0.44189712 -0.86014736
1.9166383 -0.4433691 -0.8560154
1.9056805 -0.4439279 -0.8504737
1.9040499 -0.44773743 -0.85028714
1.8921523 -0.44784665 -0.8441848
1.8901511 -0.45148018 -0.8437774
1.8885362 -0.45525295 -0.84359264
1.8853703 -0.45844817 -0.84251106
1.8740351 -0.4585556 -0.8366978
1.8724369 -0.46228927 -0.83651495
1.8835012 -0.47089195 -0.84368026
1.7692093 -0.43088648 -0.77802986
1.2118857 -0.2160064 -0.45450684
1.2112675 -0.2174508 -0.4544361
1.1992806 -0.21433833 -0.44773626
1.1923248 -0.21316963 -0.4439575
1.191733 -0.21455193 -0.4438898
1.1843796 -0.21314032 -0.43986493
1.1777906 -0.21199171 -0.43627846
1.1772182 -0.21332905 -0.43621296
1.1723012 -0.21281704 -0.43359557
1.1665509 -0.21191052 -0.430482
1.161839 -0.21141116 -0.42797235
1.1612872 -0.21270011 -0.4279092
1.1565979 -0.2121582 -0.42540383
1.1525357 -0.21186146 -0.42326316
1.1519957 -0.21312317 -0.42320135
1.1473352 -0.21250924 -0.4206986
1.1433027 -0.21214855 -0.4185622
1.1427742 -0.21338303 -0.41850176
1.1387552 -0.21298361 -0.41636568
1.1349545 -0.21265721 -0.4143544
1.1309597 -0.21220995 -0.4122226
1.130447 -0.21340762 -0.41216394
1.1262683 -0.21282567 -0.4099144
1.1227059 -0.21251369 -0.4080283
1.1222037 -0.21368709 -0.40797085
1.1188625 -0.2134451 -0.40621045
1.116135 -0.21348679 -0.40481436
1.1156406 -0.2146418 -0.4047578
1.1139349 -0.21517678 -0.40397185
1.1124293 -0.21580432 -0.40330473
1.1127462 -0.21737191 -0.40373623
1.112254 -0.21852174 -0.4036799
1.1125528 -0.22009051 -0.4041022
1.1138556 -0.22220287 -0.40513426
1.1133595 -0.2233622 -0.4050775
1.1150535 -0.22571145 -0.40635133
1.1169341 -0.2281827 -0.40774196
1.1164306 -0.2293589 -0.40768436
1.1183175 -0.23186636 -0.40908447
1.120005 -0.23428378 -0.41036662
1.1220732 -0.23693699 -0.411885
1.1215583 -0.23813973 -0.4118261
1.1230282 -0.2404844 -0.41298375
1.1248783 -0.24306811 -0.414378
1.1243565 -0.24428706 -0.4143183
1.1261954 -0.24689741 -0.41571137
1.1280352 -0.24953038 -0.41710874
1.1275058 -0.25076702 -0.4170482
1.1291295 -0.25330308 -0.41831776
1.1307354 -0.25584877 -0.4195799
1.1323552 -0.25842324 -0.42085406
1.1318154 -0.2596842 -0.42079228
1.1338013 -0.26251754 -0.42229918
1.1357604 -0.26535824 -0.42379346
1.1352124 -0.26663828 -0.42373076
1.1369994 -0.26940554 -0.4251239
1.1389511 -0.2723013 -0.4266239
1.1383953 -0.2735997 -0.4265603
1.1406952 -0.27675903 -0.4282846
1.1428285 -0.27983677 -0.4299091
1.1447573 -0.28280577 -0.4314098
1.1441883 -0.28413498 -0.4313447
1.1455778 -0.2867789 -0.4325123
1.1460357 -0.28881222 -0.43309602
1.1454618 -0.29015297 -0.43303037
1.146945 -0.2929054 -0.4342648
1.1475335 -0.29505986 -0.4349365
1.1484984 -0.2974882 -0.43584877
1.1479167 -0.29884738 -0.4357822
1.1484882 -0.3010212 -0.4364484
1.1491987 -0.3033057 -0.4372052
1.1486129 -0.3046744 -0.43713814
1.14915 -0.30685362 -0.4377877
1.149874 -0.30918 -0.4385585
1.149284 -0.31055823 -0.438491
1.1498301 -0.31277388 -0.43915135
1.1505305 -0.31511578 -0.4399127
1.1514106 -0.31760547 -0.44079182
1.150814 -0.3189991 -0.44072354
1.1515372 -0.32139283 -0.44150543
1.1520746 -0.32365888 -0.44217
1.1514739 -0.32506225 -0.44210127
1.1524363 -0.32767487 -0.4430437
1.1536567 -0.33050534 -0.44415638
1.1530502 -0.3319222 -0.44408697
1.1502298 -0.33159062 -0.44257915
1.1472046 -0.33107257 -0.44093403
1.1446164 -0.33087826 -0.43956918
1.1440213 -0.33226854 -0.4395011
1.1403424 -0.33115712 -0.43741807
1.1377587 -0.33090666 -0.43604597
1.1371723 -0.33227646 -0.4359789
1.133697 -0.33125538 -0.43401608
1.1311169 -0.33094832 -0.43263608
1.130539 -0.33229834 -0.43256995
1.1276191 -0.3316715 -0.43096048
1.1248779 -0.3311704 -0.42946434
1.1219668 -0.33049983 -0.42785186
1.121401 -0.33182195 -0.4277871
1.1186745 -0.33127216 -0.4262903
1.1159625 -0.33071056 -0.4247989
1.1154041 -0.332015 -0.424735
1.1126999 -0.33142385 -0.4232425
1.1098248 -0.3306563 -0.4216319
1.1092743 -0.33194235 -0.42156893
1.1065862 -0.3313034 -0.42007652
1.1037313 -0.3304887 -0.41846824
1.1008844 -0.3296549 -0.4168609
1.100346 -0.33091292 -0.41679928
1.0975145 -0.33005312 -0.41519535
1.0946882 -0.32917133 -0.41359022
1.0941578 -0.33041018 -0.41352955
1.0915163 -0.32966208 -0.41204247
1.0888885 -0.32890207 -0.4105604
1.0883658 -0.33012325 -0.4105006
1.0857462 -0.32933384 -0.4090177
1.082963 -0.32836145 -0.4074193
1.0805329 -0.32770494 -0.4060567
1.0800216 -0.32889965 -0.40599817
1.0774285 -0.32804838 -0.40451834
1.0748466 -0.3271829 -0.4030418
1.0743427 -0.32835996 -0.40298414
1.0719411 -0.32763734 -0.40162492
1.0693783 -0.32672882 -0.40015075
1.0688816 -0.32788897 -0.40009394
1.0666693 -0.32730004 -0.39885494
1.0642921 -0.32652065 -0.39749846
1.0620966 -0.32590544 -0.39626354
1.0616097 -0.32704276 -0.39620784
1.0594159 -0.32639748 -0.39496872
1.0574023 -0.32591993 -0.39385092
1.0569215 -0.32704324 -0.3937959
1.0547467 -0.32636565 -0.39256108
1.052751 -0.32585785 -0.3914473
1.052276 -0.32696715 -0.39139298
1.050285 -0.32643545 -0.39027756
1.0483025 -0.3258937 -0.3891649
1.0463251 -0.32533813 -0.38805243
1.0458589 -0.32642755 -0.3879991
1.0438868 -0.32584867 -0.38688543
1.0417559 -0.32507297 -0.3856563
1.0412955 -0.32614842 -0.38560364
1.0395042 -0.32572296 -0.3846092
1.0375559 -0.32510188 -0.3835005
1.0371009 -0.32616484 -0.38344842
1.0353227 -0.3257093 -0.38245556
1.0337145 -0.32543263 -0.38158086
1.0321113 -0.3251459 -0.38070688
1.0316632 -0.32619262 -0.38065562
1.0300654 -0.3258892 -0.37978163
1.0283098 -0.325384 -0.378792
1.0278665 -0.32641968 -0.37874126
1.0261188 -0.32589698 -0.37775254
1.0247003 -0.32575193 -0.3769979
1.0242614 -0.32677728 -0.37694767
1.0226864 -0.32642204 -0.37607658
1.0211186 -0.32605997 -0.37520808
1.0197141 -0.32588255 -0.374455
1.0192815 -0.32689315 -0.3744055
1.017723 -0.3265043 -0.37353718
1.0163281 -0.32630384 -0.37278515
1.0158995 -0.32730484 -0.37273613
1.0145117 -0.3270931 -0.37198585
1.0129699 -0.32667166 -0.37112042
1.0115882 -0.32643935 -0.3703699
1.0111657 -0.3274264 -0.37032157
1.0097897 -0.32718068 -0.36957157
1.0084193 -0.32692838 -0.36882332
1.0080006 -0.32790658 -0.3687754
1.0066377 -0.32764354 -0.36802918
1.0052748 -0.32736665 -0.3672806
1.0048599 -0.328336 -0.36723313
1.0035048 -0.32804844 -0.36648664
1.0023075 -0.32795942 -0.3658555
1.0009594 -0.3276549 -0.3651098
1.0005499 -0.3286117 -0.36506295
0.999205 -0.32829043 -0.36431602
0.9978663 -0.3279636 -0.36357135
0.9974605 -0.32891157 -0.3635249
0.996279 -0.3287819 -0.36289483
0.99510336 -0.3286487 -0.36226717
0.99470073 -0.32958928 -0.3622211
0.9933763 -0.32922828 -0.36147794
0.9920593 -0.32886356 -0.36073792
0.99104434 -0.3289158 -0.3602247
0.9906468 -0.3298446 -0.3601792
0.98963916 -0.32989302 -0.35966912
0.98863375 -0.32993516 -0.35915905
0.9882387 -0.33085805 -0.35911384
0.98738825 -0.331113 -0.35872
0.98653877 -0.33136213 -0.3583256
0.9861456 -0.33228058 -0.3582806
0.98469716 -0.33162597 -0.3574233
0.98340243 -0.33118483 -0.3566817
0.98211557 -0.3307409 -0.3559436
0.98172843 -0.33164537 -0.3558993
0.98103166 -0.33207828 -0.355615
0.9801476 -0.33221942 -0.35518435
0.9797622 -0.3331199 -0.35514024
0.9796305 -0.33441305 -0.35529393
2.3779366 -0.41080496 -1.09385
2.3558779 -0.41142845 -1.0825316
2.3536878 -0.416545 -1.082281
2.3312628 -0.4168664 -1.0707208
2.3061883 -0.4164032 -1.0576526
2.2815087 -0.4158695 -1.0447767
2.2794113 -0.42076933 -1.0445367
2.2556114 -0.42020944 -1.032112
2.2276304 -0.41842282 -1.0173097
2.2256007 -0.42316478 -1.0170774
2.1962674 -0.42073616 -1.0014638
2.1630309 -0.4170656 -0.9836138
2.1610847 -0.42161265 -0.9833911
2.118946 -0.415156 -0.96044856
2.0767074 -0.4083711 -0.9373976
2.035407 -0.40154764 -0.914826
2.0336325 -0.40569317 -0.91462296
2.0098004 -0.4034686 -0.901894
1.9928893 -0.40310213 -0.89307106
1.9911684 -0.40712252 -0.8928741
1.9817823 -0.40884212 -0.8883094
1.9731828 -0.41074222 -0.8841831
1.9714829 -0.41471344 -0.8839886
1.9671421 -0.41786167 -0.882284
1.9644519 -0.4215103 -0.88152087
1.9607477 -0.4248274 -0.88017505
1.959056 -0.4287795 -0.8799815
1.9543341 -0.43174037 -0.8780471
1.9463822 -0.43360853 -0.8742508
1.944704 -0.43752894 -0.87405884
1.9341472 -0.43844104 -0.86874807
1.9252521 -0.43985292 -0.8643844
1.9235976 -0.44371805 -0.8641951
1.9150858 -0.4451789 -0.86003846
1.904141 -0.44572264 -0.8544632
1.8922426 -0.44585055 -0.8483221
1.8906271 -0.4496247 -0.84813726
1.8886263 -0.4532576 -0.8477284
1.8854603 -0.4564556 -0.84664094
1.8838477 -0.46022305 -0.8464564
1.8725262 -0.4603146 -0.8406079
1.8835914 -0.46889392 -0.84782153
1.8819743 -0.4726717 -0.84763646
1.7678412 -0.4324812 -0.78157467
1.2113019 -0.21668687 -0.45601946
1.1993142 -0.21359548 -0.449276
1.198713 -0.21500005 -0.4492072
1.191766 -0.21382084 -0.4454051
1.184412 -0.2124218 -0.4413542
1.1838305 -0.21378033 -0.44128764
1.1772501 -0.21262175 -0.437679
1.1723328 -0.21211784 -0.4350448
1.1717669 -0.21343985 -0.43498003
1.166024 -0.21252468 -0.4318472
1.161318 -0.2120184 -0.42932212
1.1566283 -0.2114843 -0.42680067
1.1560829 -0.21275851 -0.42673826
1.1520257 -0.21245585 -0.42458445
1.147365 -0.21184973 -0.4220656
1.1468313 -0.21309671 -0.4220045
1.1428038 -0.21273012 -0.419855
1.1387844 -0.21233734 -0.4177052
1.1382614 -0.21355928 -0.41764534
1.1344653 -0.21322735 -0.41562176
1.1304758 -0.21277419 -0.41347685
1.1262965 -0.21219924 -0.41121283
1.1257895 -0.21338367 -0.4111548
1.1222317 -0.21306649 -0.4092571
1.1188903 -0.21282996 -0.40748546
1.1183925 -0.21399304 -0.40742847
1.1156682 -0.21403092 -0.40602392
1.1139623 -0.21456826 -0.40523314
1.1124567 -0.21519776 -0.40456194
1.1119658 -0.21634464 -0.40450576
1.1122816 -0.2179136 -0.40494037
1.1125803 -0.21948081 -0.40536585
1.1120869 -0.22063357 -0.4053094
1.1133871 -0.22274902 -0.40634835
1.1150814 -0.225094 -0.40763104
1.1145818 -0.2262614 -0.40757388
1.1164588 -0.2287368 -0.4089737
1.1183459 -0.23123959 -0.41038352
1.1200335 -0.23365273 -0.4116746
1.1195228 -0.23484588 -0.41161615
1.121587 -0.23750359 -0.41314456
1.1230571 -0.23984438 -0.41431034
1.1225392 -0.24105449 -0.41425106
1.1243856 -0.24364236 -0.41565454
1.1262249 -0.24624802 -0.4170573
1.1256993 -0.24747583 -0.41699716
1.1275353 -0.25011298 -0.41840383
1.1291592 -0.25264472 -0.4196823
1.1307654 -0.25518614 -0.42095324
1.1302291 -0.25643897 -0.42089188
1.1318456 -0.25901726 -0.42217457
1.1338317 -0.26184556 -0.42369193
1.1332879 -0.2631161 -0.4236297
1.135243 -0.26596126 -0.42513394
1.1370301 -0.26872385 -0.42653683
1.1364784 -0.27001274 -0.4264737
1.1384263 -0.27291298 -0.42798367
1.1407266 -0.27606648 -0.42971992
1.14286 -0.27913883 -0.43135574
1.1422951 -0.28045845 -0.43129113
1.1442201 -0.28343195 -0.4328018
1.1456097 -0.28607193 -0.4339777
1.1450375 -0.28740865 -0.43391222
1.1454939 -0.28944385 -0.4345001
1.1469773 -0.29219207 -0.43574324
1.1464 -0.29354075 -0.4356772
1.1469867 -0.29569736 -0.43635362
1.1479491 -0.29812855 -0.43727216
1.1485207 -0.30029994 -0.4379433
1.1479369 -0.3016636 -0.43787652
1.1486455 -0.3039505 -0.43863857
1.1491828 -0.30612737 -0.43929297
1.1485951 -0.30750048 -0.4392257
1.1493169 -0.3098293 -0.44000188
1.1498632 -0.31204256 -0.4406671
1.1492714 -0.3134253 -0.44059938
1.1499697 -0.31576955 -0.44136608
1.1508474 -0.318262 -0.4422513
1.1515706 -0.32065302 -0.4430389
1.1509719 -0.32205182 -0.4429704
1.1515075 -0.32432002 -0.44363967
1.1524699 -0.3269294 -0.44458893
1.1518666 -0.32833892 -0.44451988
1.1530842 -0.33117282 -0.44564012
1.1502634 -0.33084598 -0.4441226
1.1496608 -0.33225393 -0.44405365
1.1466395 -0.33173132 -0.44239837
1.1440545 -0.33153322 -0.44102517
1.1403754 -0.33042836 -0.43892854
1.1397855 -0.33180624 -0.43886107
1.1372051 -0.331552 -0.43748054
1.1337296 -0.33053705 -0.43550488
1.1331482 -0.3318952 -0.43543836
1.1305712 -0.33158433 -0.43404987
1.1276512 -0.3309625 -0.43242997
1.1270775 -0.33230302 -0.4323643
1.1243397 -0.33179775 -0.43085894
1.1214325 -0.3311227 -0.4292364
1.1187059 -0.33057755 -0.42772993
1.1181438 -0.33189082 -0.4276656
1.1154352 -0.33132508 -0.42616495
1.1127309 -0.3307386 -0.42466277
1.1121763 -0.33203423 -0.42459932
1.109305 -0.33126214 -0.42297867
1.1066167 -0.3306279 -0.42147657
1.10607 -0.33190507 -0.42141402
1.1032189 -0.33108586 -0.4197957
1.100376 -0.33024755 -0.41817835
1.0975444 -0.3293928 -0.41656393
1.09701 -0.33064127 -0.41650277
1.0941874 -0.32975495 -0.41488764
1.0915457 -0.3290115 -0.41339087
1.0910193 -0.33024156 -0.4133306
1.0883949 -0.32947737 -0.41183928
1.0857753 -0.3286926 -0.41034672
1.0829917 -0.3277253 -0.4087378
1.0824769 -0.32892808 -0.40867892
1.0800501 -0.32826778 -0.40730783
1.0774568 -0.3274212 -0.40581834
1.0769492 -0.32860705 -0.40576026
1.0743709 -0.32773742 -0.40427446
1.0719692 -0.32701907 -0.40290633
1.0714688 -0.32818803 -0.40284908
1.0689094 -0.32727537 -0.4013657
1.066697 -0.32669035 -0.40011862
1.0643195 -0.32591528 -0.39875326
1.0638295 -0.32705992 -0.39869717
1.0616369 -0.32644123 -0.39745462
1.059443 -0.32579985 -0.39620736
1.0589594 -0.32692978 -0.39615202
1.0569483 -0.32644913 -0.39502728
1.0547734 -0.32577544 -0.39378437
1.0542958 -0.32689136 -0.39372972
1.0523026 -0.32638043 -0.39260906
1.0503113 -0.32585227 -0.39148635
1.0483286 -0.32531402 -0.39036644
1.0478595 -0.32641006 -0.39031273
1.0458848 -0.32585135 -0.38919336
1.0439128 -0.32527596 -0.38807243
1.0434493 -0.32635877 -0.38801938
1.0413213 -0.3255796 -0.38678253
1.0395298 -0.32515728 -0.38578165
1.039072 -0.32622683 -0.38572925
1.0371263 -0.32560265 -0.3846136
1.0353479 -0.32515025 -0.38361427
1.0337397 -0.3248763 -0.38273394
1.0332896 -0.32592815 -0.3826824
1.0316882 -0.325639 -0.38180304
1.0300903 -0.32533833 -0.3809234
1.0296445 -0.3263799 -0.3808724
1.0278913 -0.3258719 -0.37987655
1.0261434 -0.32535234 -0.3788814
1.0257026 -0.3263821 -0.37883097
1.0242858 -0.32623497 -0.37807167
1.0227108 -0.32588246 -0.3771949
1.021143 -0.3255231 -0.37632075
1.0207084 -0.32653815 -0.37627104
1.0193056 -0.32635865 -0.37551337
1.017747 -0.3259725 -0.3746394
1.0173167 -0.32697794 -0.37459016
1.0159235 -0.32677543 -0.37383348
1.0145355 -0.32656595 -0.37307838
1.014109 -0.32756257 -0.37302956
1.0125692 -0.32713875 -0.37215874
1.0111893 -0.32690436 -0.37140355
1.0098133 -0.326661 -0.37064868
1.0093926 -0.3276436 -0.37060055
1.008024 -0.3273892 -0.3698477
1.006661 -0.3271285 -0.36909667
1.0062442 -0.3281023 -0.36904895
1.004883 -0.3278233 -0.36829573
1.0035278 -0.3275381 -0.3675444
1.0031147 -0.328503 -0.36749715
1.0019189 -0.32841223 -0.36686212
1.0005727 -0.32810566 -0.36611181
0.99922776 -0.3277867 -0.36536005
0.99882007 -0.3287391 -0.3653134
0.9974832 -0.32841018 -0.3645641
0.9963016 -0.3282825 -0.36392993
0.9958974 -0.32922676 -0.3638837
0.99472314 -0.32909182 -0.3632522
0.9933987 -0.32873315 -0.36250418
0.992998 -0.32966933 -0.36245832
0.99168277 -0.32930252 -0.3617137
0.99066895 -0.32935336 -0.36119735
0.98966134 -0.32940334 -0.36068404
0.989265 -0.3303292 -0.36063868
0.9882608 -0.33036995 -0.36012557
0.98741025 -0.33062604 -0.35972926
0.98701614 -0.33154675 -0.35968417
0.98616755 -0.3317948 -0.35928744
0.984719 -0.33114293 -0.35842448
0.9843281 -0.33205622 -0.35837975
0.98303515 -0.331613 -0.35763347
0.9817501 -0.33116698 -0.35689077
0.9810532 -0.33160076 -0.35660478
0.9806667 -0.33250365 -0.35656056
0.9797837 -0.33264366 -0.35612732
0.97965205 -0.33393615 -0.3562824
0.9792661 -0.33483785 -0.35623825
2.396583 -0.40648267 -1.1089144
2.3789499 -0.40826395 -1.1000292
2.3767307 -0.41344863 -1.0997752
2.3544543 -0.41398808 -1.088252
2.3326874 -0.41450217 -1.0769901
2.3305237 -0.4195564 -1.0767425
2.305541 -0.41907716 -1.0636306
2.281573 -0.4186811 -1.0510621
2.2578578 -0.41818827 -1.0386088
2.255788 -0.42302328 -1.038372
2.2267976 -0.42093542 -1.0228895
2.1985385 -0.4188396 -1.0077872
2.1965444 -0.42349792 -1.0075591
2.1635888 -0.41985032 -0.989737
2.123045 -0.4139083 -0.9675581
2.1211505 -0.41833442 -0.9673413
2.078784 -0.4114499 -0.9440476
2.0374413 -0.4045512 -0.9212851
2.0113769 -0.40173975 -0.9072026
2.0096319 -0.40581614 -0.907003
1.9903706 -0.40473288 -0.89676946
1.9794881 -0.40601647 -0.89131796
1.9777818 -0.4100029 -0.8911227
1.968091 -0.41154614 -0.8863379
1.9646009 -0.41494936 -0.88511074
1.962674 -0.4188291 -0.88478184
1.9609822 -0.42278165 -0.88458824
1.9572985 -0.42609406 -0.88324445
1.9529171 -0.42916405 -0.8814944
1.9512321 -0.43310064 -0.8813016
1.9431199 -0.43489665 -0.8773841
1.9333792 -0.4360935 -0.8725129
1.9317154 -0.4399805 -0.8723225
1.9220215 -0.44109848 -0.867462
1.9134892 -0.44255826 -0.8632667
1.9033988 -0.44341388 -0.8581536
1.9017694 -0.44722053 -0.85796714
1.8908474 -0.44767553 -0.85235065
1.8871891 -0.4507052 -0.8509708
1.8855765 -0.45447266 -0.85078627
1.881334 -0.45726007 -0.84905946
1.8687752 -0.45689318 -0.84244615
1.8671829 -0.4606135 -0.84226394
1.8725822 -0.46702453 -0.8461969
1.8739935 -0.47194144 -0.84778965
1.2660418 -0.23742057 -0.48987767
1.2653415 -0.23905621 -0.48979756
1.206154 -0.21722876 -0.45512775
1.1929756 -0.21356657 -0.44761708
1.1923822 -0.214953 -0.4475492
1.184441 -0.21330081 -0.4431199
1.177877 -0.21216285 -0.43949848
1.1773036 -0.2135023 -0.4394329
1.1730351 -0.21326755 -0.43716606
1.1672951 -0.21236864 -0.43401593
1.1623833 -0.2117861 -0.4313529
1.16183 -0.21307872 -0.4312896
1.1573498 -0.21263222 -0.42887545
1.1530871 -0.21224962 -0.4265857
1.1525455 -0.21351501 -0.42652375
1.1478899 -0.21290597 -0.42398977
1.1440637 -0.21264312 -0.42194858
1.1435335 -0.21388201 -0.4218879
1.1393178 -0.21339427 -0.41960445
1.1351112 -0.21287899 -0.41732094
1.131121 -0.21243507 -0.41516274
1.1306075 -0.21363495 -0.41510397
1.1262306 -0.21295774 -0.4127034
1.1226765 -0.21265018 -0.41079634
1.1221735 -0.21382509 -0.41073883
1.1192381 -0.21378607 -0.4092012
1.1169177 -0.21403523 -0.40803453
1.1164215 -0.21519467 -0.40797776
1.1155179 -0.21614546 -0.40767217
1.1142118 -0.21688455 -0.4071198
1.1149265 -0.21866977 -0.4078036
1.1144302 -0.2198292 -0.4077468
1.1149311 -0.22151741 -0.40830228
1.116619 -0.22384919 -0.40958872
1.1161177 -0.22502032 -0.40953135
1.1180028 -0.22748914 -0.4109446
1.1202807 -0.23019518 -0.41260418
1.1197712 -0.2313854 -0.4125459
1.1216402 -0.23390156 -0.41395897
1.1233191 -0.23633274 -0.4152581
1.1253774 -0.23899926 -0.4167962
1.1248566 -0.24021599 -0.4167366
1.1265074 -0.24268349 -0.4180274
1.1279618 -0.24505723 -0.41919947
1.1274343 -0.24628943 -0.41913912
1.1292641 -0.24891247 -0.42055044
1.1312723 -0.25166377 -0.42207715
1.1307371 -0.25291434 -0.4220159
1.1321753 -0.2553573 -0.4231916
1.133966 -0.25803354 -0.42459175
1.1355773 -0.2606219 -0.4258831
1.1350316 -0.26189688 -0.42582068
1.1369925 -0.2647341 -0.42733765
1.1389583 -0.26759845 -0.42886195
1.1384045 -0.26889244 -0.42879856
1.1399902 -0.271551 -0.43008885
1.1417443 -0.2743384 -0.43148926
1.1411831 -0.27564937 -0.43142503
1.1434782 -0.27882352 -0.433175
1.1454018 -0.28178164 -0.43469363
1.1471329 -0.28463668 -0.43609384
1.1465592 -0.28597698 -0.4360282
1.1480991 -0.2887376 -0.43731225
1.1490848 -0.29114425 -0.4382457
1.148505 -0.29249874 -0.43817937
1.1496387 -0.29503027 -0.43921167
1.150788 -0.29758993 -0.44025707
1.1514263 -0.2998109 -0.44097698
1.1508389 -0.30118343 -0.44090974
1.1513822 -0.30335572 -0.4415716
1.1524287 -0.305898 -0.4425604
1.1518366 -0.30728135 -0.44249266
1.1523908 -0.30949298 -0.44316706
1.1531084 -0.3118352 -0.44394937
1.1525121 -0.3132282 -0.44388115
1.1530343 -0.3154466 -0.44454002
1.1537004 -0.31778342 -0.4452945
1.1542374 -0.32003695 -0.44596723
1.1536351 -0.32144386 -0.44589832
1.1537731 -0.32341242 -0.44631332
1.1548374 -0.32609653 -0.44733602
1.1542311 -0.32751298 -0.44726667
1.1564116 -0.33108833 -0.44902685
1.1551778 -0.33203012 -0.4485475
1.1545678 -0.33345518 -0.44847772
1.150385 -0.33205527 -0.4460524
1.1468631 -0.3311432 -0.44405684
1.144251 -0.33092877 -0.4426572
1.1436555 -0.33231968 -0.44258907
1.1403583 -0.33151603 -0.44072953
1.1376017 -0.33112508 -0.43922383
1.1370147 -0.33249635 -0.43915665
1.133717 -0.3316214 -0.43728444
1.1309677 -0.3311742 -0.43577278
1.1303892 -0.33252567 -0.4357066
1.1278244 -0.3321984 -0.434312
1.1250902 -0.33170485 -0.43280008
1.1221827 -0.33103877 -0.43116775
1.1216155 -0.33236384 -0.43110284
1.1190696 -0.33197233 -0.42970696
1.1161814 -0.3312594 -0.4280765
1.1156217 -0.3325668 -0.4280125
1.1129155 -0.3319755 -0.42649817
1.1100432 -0.33121166 -0.42486703
1.1094913 -0.3325006 -0.4248039
1.1064535 -0.33154792 -0.4230537
1.1036018 -0.33073536 -0.42142493
1.1007582 -0.32990366 -0.41979703
1.100219 -0.33116314 -0.41973534
1.0973877 -0.33030266 -0.41810885
1.0945643 -0.32942298 -0.41648325
1.0940335 -0.3306633 -0.4164225
1.0913978 -0.3299201 -0.41491848
1.0885984 -0.3289967 -0.41329765
1.0880753 -0.3302186 -0.4132378
1.0852879 -0.32926643 -0.4116183
1.0826794 -0.3284599 -0.41011745
1.0800784 -0.32763565 -0.40861735
1.079567 -0.32883036 -0.40855882
1.0768117 -0.32781667 -0.40694535
1.0742339 -0.32695138 -0.4054502
1.0737303 -0.32812774 -0.40539256
1.0713323 -0.32740495 -0.40401605
1.068773 -0.32649642 -0.4025231
1.0682768 -0.32765585 -0.40246633
1.0660675 -0.32706654 -0.40121153
1.0638608 -0.3264585 -0.39995474
1.0616641 -0.32583967 -0.3987013
1.0611773 -0.32697698 -0.3986456
1.0591562 -0.32650986 -0.39751023
1.0571482 -0.32603714 -0.39638072
1.0566671 -0.3271612 -0.39632565
1.0544947 -0.32648462 -0.3950749
1.0523318 -0.3257967 -0.39382708
1.051857 -0.32690603 -0.39377275
1.0498681 -0.3263744 -0.39264295
1.0478877 -0.32583258 -0.39151573
1.0459124 -0.32527685 -0.39038876
1.045446 -0.3263663 -0.3903354
1.0434765 -0.3257876 -0.3892074
1.0415146 -0.32519796 -0.38808152
1.0410539 -0.32627416 -0.38802883
1.0392644 -0.32584977 -0.38702172
1.0374804 -0.32541382 -0.38601533
1.0370247 -0.3264782 -0.3859632
1.0352484 -0.32602483 -0.3849578
1.0334773 -0.32555985 -0.38395312
1.0317128 -0.32508495 -0.3829502
1.0312648 -0.32613167 -0.38289893
1.029669 -0.3258287 -0.38201398
1.028078 -0.32551563 -0.38112968
1.0276343 -0.32655203 -0.3810789
1.0260513 -0.32622516 -0.3801964
1.0244713 -0.32588637 -0.37931338
1.024032 -0.32691246 -0.37926313
1.0222996 -0.32636458 -0.37826422
1.0208926 -0.32619706 -0.37750125
1.0194893 -0.32602063 -0.3767387
1.0190564 -0.32703194 -0.37668917
1.0175011 -0.32664582 -0.37581077
1.0159488 -0.3262477 -0.37493184
1.0155203 -0.3272487 -0.37488282
1.0141326 -0.32703525 -0.37412196
1.0127503 -0.3268149 -0.3733627
1.0113717 -0.3265857 -0.37260383
1.010949 -0.32757348 -0.37255546
1.0095744 -0.32732883 -0.371796
1.0082053 -0.32707754 -0.37103823
1.0077863 -0.32805645 -0.37099028
1.0064229 -0.32779193 -0.37023318
1.0049081 -0.3273131 -0.36935976
1.0044931 -0.32828245 -0.3693123
1.0032921 -0.32819933 -0.36867145
1.0020958 -0.32811105 -0.36803225
1.0005978 -0.32760265 -0.3671624
1.0001882 -0.32855946 -0.36711556
0.99899805 -0.3284478 -0.3664754
0.99766064 -0.32812196 -0.3657212
0.99725455 -0.32907066 -0.36567473
0.99607426 -0.32894212 -0.3650368
0.99489665 -0.32880563 -0.3643989
0.9944937 -0.3297469 -0.3643528
0.9931738 -0.32939124 -0.36360246
0.991858 -0.3290273 -0.36285284
0.99084395 -0.3290805 -0.36233327
0.99044603 -0.33001003 -0.36228773
0.98943925 -0.3300595 -0.36177135
0.98842865 -0.3300937 -0.36125028
0.9880333 -0.33101735 -0.36120504
0.9871893 -0.33128187 -0.36081097
0.9863309 -0.33151793 -0.36040443
0.9859375 -0.33243707 -0.36035943
0.98463863 -0.33200437 -0.3596067
0.9830582 -0.33113432 -0.3586309
0.98188174 -0.33085483 -0.35796863
0.98149437 -0.33175984 -0.3579243
0.98128283 -0.33293307 -0.3580185
0.98019415 -0.33276397 -0.35742125
0.9798079 -0.33366638 -0.35737705
0.9788309 -0.33365285 -0.3568652
2.3970134 -0.40378076 -1.1148254
2.394772 -0.40901688 -1.1145688
2.3772955 -0.41080624 -1.1057078
2.3549306 -0.41136232 -1.0940634
2.352739 -0.41648218 -1.0938127
2.3307137 -0.41689968 -1.0823222
2.3060622 -0.41654077 -1.0693166
2.2820668 -0.4161781 -1.0566548
2.279966 -0.42108595 -1.0564145
2.2558393 -0.4204499 -1.0436355
2.227285 -0.41852108 -1.0283049
2.225253 -0.42326793 -1.0280725
2.1965778 -0.4210137 -1.0126212
2.1637342 -0.41745096 -0.9947512
2.1617842 -0.42200613 -0.9945281
2.122702 -0.41638958 -0.9730219
2.0832155 -0.41038278 -0.951235
2.0407994 -0.4032693 -0.9277153
2.0390148 -0.4074382 -0.92751116
2.0113404 -0.40412575 -0.9123993
1.9905277 -0.40262604 -0.9012086
1.988808 -0.40664363 -0.9010118
1.9761865 -0.40738675 -0.8945159
1.9656103 -0.40866873 -0.88918847
1.9639192 -0.4126194 -0.888995
1.9613053 -0.41628236 -0.8882663
1.9587263 -0.4199492 -0.88755673
1.955854 -0.42351547 -0.8866756
1.9541674 -0.42745602 -0.8864826
1.9504517 -0.43073243 -0.88510764
1.9423597 -0.43254346 -0.8811774
1.9406853 -0.4364552 -0.88098586
1.9301183 -0.4373518 -0.8755956
1.9212352 -0.438756 -0.8711785
1.9195845 -0.44261238 -0.8709896
1.9102113 -0.44375908 -0.86627
1.9018279 -0.4451958 -0.8621211
1.891791 -0.4459854 -0.8569903
1.890174 -0.44976294 -0.85680526
1.8839898 -0.45186508 -0.85392785
1.8812754 -0.45521727 -0.8530919
1.8796669 -0.45897514 -0.85290784
1.8715572 -0.46026972 -0.8488776
1.8668566 -0.46281707 -0.8468574
1.8652624 -0.46654153 -0.846675
1.8703429 -0.47287634 -0.8504557
1.5839889 -0.36409768 -0.68099546
1.208372 -0.21734415 -0.4579958
1.2077564 -0.21878235 -0.45792535
1.189428 -0.21300237 -0.44728664
1.1881005 -0.21407424 -0.446778
1.1875125 -0.21544757 -0.44671074
1.1785893 -0.21332046 -0.4416521
1.1726373 -0.21238387 -0.4383625
1.1720703 -0.21370874 -0.4382976
1.1673869 -0.21325326 -0.43575874
1.1630956 -0.2129343 -0.43344966
1.1582048 -0.2123195 -0.43077376
1.1576562 -0.21360105 -0.430711
1.153405 -0.21321847 -0.42841175
1.1489484 -0.2127112 -0.42598283
1.1484115 -0.21396555 -0.4259214
1.1443863 -0.21360737 -0.42374513
1.1401668 -0.21312849 -0.42144558
1.1396408 -0.21435708 -0.4213854
1.1354351 -0.2138369 -0.41908583
1.1312491 -0.2132943 -0.41679278
1.1272796 -0.2128245 -0.41462615
1.1267704 -0.2140141 -0.4145679
1.1230167 -0.21360528 -0.4125253
1.1206882 -0.21387632 -0.41135043
1.1201869 -0.21504754 -0.41129306
1.1176649 -0.2151965 -0.40999514
1.1171685 -0.21636128 -0.4099392
1.1164578 -0.21741574 -0.4097514
1.1159599 -0.21857883 -0.4096944
1.1166695 -0.2203743 -0.4103825
1.1177683 -0.22238624 -0.41131303
1.117266 -0.22355965 -0.41125554
1.1193361 -0.22611505 -0.41279152
1.1214253 -0.22870412 -0.41434342
1.1209148 -0.22989658 -0.414285
1.1231917 -0.2326246 -0.41595992
1.1252443 -0.23525348 -0.4174995
1.1269175 -0.23769353 -0.41880685
1.126395 -0.23891392 -0.41874707
1.1282543 -0.24149027 -0.420176
1.1300883 -0.24407421 -0.42159307
1.1295583 -0.24531226 -0.42153242
1.1311918 -0.24781229 -0.42282945
1.1328291 -0.2503347 -0.42413232
1.1322922 -0.25158903 -0.4240709
1.1341048 -0.2542469 -0.4254897
1.1359078 -0.25692117 -0.42690632
1.1373137 -0.2593767 -0.428076
1.1367661 -0.26065606 -0.42801335
1.1387428 -0.2634913 -0.4295495
1.1407123 -0.2663463 -0.43108526
1.1401564 -0.26764473 -0.43102166
1.141726 -0.27028382 -0.43230957
1.1434816 -0.27306184 -0.4337196
1.1429186 -0.27437717 -0.4336552
1.1446373 -0.277165 -0.43504748
1.1463768 -0.27998868 -0.436457
1.1479664 -0.2827368 -0.4377746
1.1473923 -0.28407794 -0.4377089
1.1488948 -0.2868 -0.43897614
1.1506075 -0.28968346 -0.44038212
1.1500262 -0.2910414 -0.4403156
1.151194 -0.29358855 -0.4413764
1.1525743 -0.29629883 -0.44257748
1.151987 -0.29767114 -0.44251025
1.1534858 -0.30049327 -0.44379315
1.153985 -0.3026369 -0.44443202
1.1545974 -0.30487114 -0.4451462
1.1540027 -0.30626053 -0.44507816
1.1549491 -0.30875224 -0.446013
1.1557565 -0.31115946 -0.44685993
1.1551567 -0.31256038 -0.44679132
1.1560829 -0.3150761 -0.4477197
1.156783 -0.31744123 -0.4485029
1.1561786 -0.31885326 -0.44843373
1.1566665 -0.3210804 -0.44908136
1.1576996 -0.32372862 -0.45008925
1.1572857 -0.32529914 -0.45014793
1.1566764 -0.32672274 -0.45007822
1.1576308 -0.32934615 -0.45104045
1.158273 -0.33174476 -0.45179912
1.1576588 -0.33317956 -0.45172882
1.1555363 -0.33343318 -0.45065904
1.1507962 -0.33160684 -0.44784942
1.1501917 -0.33301908 -0.44778025
1.146452 -0.33192554 -0.4456246
1.1438872 -0.3317436 -0.44424605
1.1404009 -0.33079386 -0.44224876
1.1398101 -0.33217397 -0.44218117
1.1370451 -0.3317691 -0.4406583
1.1342839 -0.3313435 -0.4391338
1.1337006 -0.332706 -0.43906707
1.1306055 -0.33196494 -0.4373118
1.1282202 -0.33179432 -0.43602943
1.1276444 -0.33313924 -0.43596354
1.1250939 -0.33279744 -0.4345644
1.1223643 -0.33227953 -0.43304026
1.1194628 -0.33158875 -0.43139553
1.1188985 -0.33290717 -0.43133095
1.116188 -0.33234435 -0.429809
1.1134803 -0.33175957 -0.4282846
1.1129235 -0.33306032 -0.4282209
1.1100543 -0.33229446 -0.4265799
1.1071931 -0.33150935 -0.4249397
1.1066445 -0.33279094 -0.42487693
1.1037955 -0.33197692 -0.42323807
1.100778 -0.33098185 -0.42147893
1.0979453 -0.3301286 -0.41984183
1.0974094 -0.33138072 -0.4197805
1.0942458 -0.33017802 -0.4179081
1.0916096 -0.32944024 -0.41639438
1.0910822 -0.33067253 -0.41633403
1.0882864 -0.3297456 -0.41470334
1.0854951 -0.32879588 -0.4130709
1.0828861 -0.32799473 -0.41156024
1.0823705 -0.32919905 -0.41150126
1.0796031 -0.32820582 -0.40987372
1.0770133 -0.32735983 -0.40836528
1.0765057 -0.32854572 -0.4083072
1.0737584 -0.32750553 -0.40668207
1.0713637 -0.32679057 -0.40529916
1.0708636 -0.32795885 -0.40524194
1.0684756 -0.32721582 -0.4038576
1.0660945 -0.32645667 -0.40247408
1.0638877 -0.32585263 -0.4012092
1.0633976 -0.32699728 -0.40115315
1.0610371 -0.32620195 -0.39977401
1.0590161 -0.32573757 -0.3986314
1.0585325 -0.3268675 -0.39857605
1.0565238 -0.32638705 -0.39743695
1.0543545 -0.3257168 -0.39618024
1.0538769 -0.32683274 -0.39612558
1.0518824 -0.32631803 -0.39498794
1.0498934 -0.32579 -0.3938509
1.0479126 -0.3252514 -0.3927163
1.0474434 -0.32634747 -0.3926626
1.0454684 -0.325786 -0.39152697
1.0435011 -0.32521352 -0.3903935
1.0430375 -0.32629633 -0.39034048
1.041243 -0.3258878 -0.3893264
1.0394534 -0.32546774 -0.38831308
1.038995 -0.32653877 -0.38826063
1.0372133 -0.32610115 -0.38724828
1.0352746 -0.32546604 -0.3861188
1.0335034 -0.32500425 -0.3851077
1.0330528 -0.32605684 -0.38505614
1.0314522 -0.32576752 -0.38416493
1.0296937 -0.32527757 -0.38315558
1.0292479 -0.3263191 -0.38310456
1.0276589 -0.3260037 -0.38221487
1.0260758 -0.3256796 -0.38132674
1.0256344 -0.3267108 -0.38127622
1.0240566 -0.32636964 -0.38038784
1.0224857 -0.32602143 -0.379502
1.0210783 -0.32585695 -0.37873417
1.0206432 -0.32687348 -0.37868437
1.0190805 -0.3264969 -0.37779772
1.017525 -0.32611343 -0.37691364
1.0170943 -0.32711962 -0.37686437
1.0157025 -0.32691815 -0.37609822
1.0143144 -0.32670778 -0.3753325
1.0138875 -0.32770512 -0.37528366
1.0125066 -0.32748336 -0.37451968
1.0111295 -0.32725275 -0.3737561
1.0095994 -0.3268108 -0.37287515
1.0091785 -0.32779416 -0.372827
1.0078113 -0.3275409 -0.37206468
1.006446 -0.3272764 -0.3713014
1.0060289 -0.3282509 -0.37125367
1.0046712 -0.32797548 -0.3704924
1.0033151 -0.32768852 -0.36973
1.0029018 -0.32865417 -0.3696827
1.0017071 -0.32856426 -0.36903965
1.0003643 -0.32826144 -0.36828142
0.99902314 -0.32794693 -0.36752203
0.99861515 -0.32890007 -0.36747536
0.9974319 -0.32878235 -0.36683336
0.996097 -0.3284425 -0.36607283
0.9956925 -0.32938752 -0.36602655
0.99467015 -0.32946515 -0.36550346
0.9933465 -0.3291079 -0.3647457
0.99294513 -0.33004555 -0.36469978
0.99163026 -0.3296794 -0.36394507
0.99047244 -0.32952443 -0.36330995
0.9894665 -0.3295767 -0.362791
0.9890699 -0.33050334 -0.3627456
0.9882129 -0.3307586 -0.36234057
0.9873545 -0.3310045 -0.36193314
0.9869598 -0.33192664 -0.361888
0.9861091 -0.33217275 -0.36148456
0.9846601 -0.33151996 -0.36060908
0.98426855 -0.33243468 -0.3605643
0.98268884 -0.33155945 -0.35958108
0.9818479 -0.33178386 -0.35917902
0.9815771 -0.3328691 -0.35922757
0.9811888 -0.33377632 -0.35918313
0.9795951 -0.33282843 -0.35817987
0.9793094 -0.3338844 -0.35821542
0.97892344 -0.3347861 -0.35817125
2.3942213 -0.4060982 -1.1199253
2.3780637 -0.408208 -1.1117593
2.375843 -0.41339627 -1.1115052
2.3535957 -0.41394436 -1.0998435
2.3318205 -0.4144584 -1.0884254
2.3296554 -0.41951612 -1.0881777
2.305242 -0.41917628 -1.0752138
2.280818 -0.4186711 -1.062215
2.2555902 -0.41780165 -1.0487268
2.2535212 -0.42263523 -1.04849
2.225964 -0.42091107 -1.0336193
2.196804 -0.41858009 -1.0177935
2.19481 -0.42323855 -1.0175654
2.1636233 -0.42006135 -1.0005186
2.1255226 -0.41478488 -0.9794453
2.1236222 -0.41922492 -0.9792278
2.0855296 -0.4135445 -0.9580872
2.0450974 -0.4069288 -0.93554425
2.0153217 -0.40308216 -0.91912436
2.0135689 -0.40717703 -0.9189238
1.9906923 -0.40504578 -0.9064546
1.9763353 -0.4052974 -0.89891094
1.9746313 -0.40927827 -0.898716
1.96166 -0.40980923 -0.8919541
1.9588244 -0.41339612 -0.8910912
1.9569234 -0.41726747 -0.8907727
1.9552376 -0.42120555 -0.8905798
1.9516801 -0.4245417 -0.88929087
1.9488196 -0.42809013 -0.88840795
1.9471384 -0.43201783 -0.88821554
1.9399195 -0.4340999 -0.88476914
1.9300553 -0.43524647 -0.8797586
1.9283941 -0.43912712 -0.8795685
1.91894 -0.4403185 -0.8747828
1.9095707 -0.44147798 -0.8700362
1.902655 -0.44344234 -0.86672914
1.9010246 -0.4472514 -0.8665426
1.8926712 -0.44863385 -0.8623725
1.8849214 -0.4501827 -0.858551
1.8833101 -0.4539473 -0.8583666
1.8779645 -0.45631915 -0.8559617
1.8722157 -0.4585088 -0.8533113
1.8706161 -0.46224597 -0.85312825
1.8635411 -0.4638745 -0.8496775
1.8636346 -0.46824843 -0.8505022
1.8333644 -0.46069428 -0.8331639
1.8318132 -0.46431795 -0.8329865
1.3131473 -0.26032194 -0.5226862
1.1940962 -0.21415484 -0.4515783
1.1935003 -0.21554707 -0.45151007
1.1869452 -0.21447283 -0.44785503
1.1793659 -0.21292086 -0.4435739
1.1787895 -0.21426736 -0.44350794
1.1722803 -0.21308409 -0.43985778
1.1682267 -0.2129084 -0.43768412
1.1637448 -0.21251714 -0.43524587
1.1631887 -0.21381633 -0.43518224
1.1587152 -0.2133791 -0.43274027
1.1546673 -0.21309902 -0.43055114
1.1541225 -0.21437177 -0.4304888
1.1494682 -0.21377034 -0.42792213
1.1456472 -0.21351731 -0.42585766
1.1451137 -0.21476357 -0.42579663
1.1408981 -0.21428308 -0.42348334
1.1364901 -0.21367967 -0.4210465
1.1320996 -0.21305104 -0.41861457
1.1315838 -0.21425611 -0.41855553
1.1276147 -0.21378171 -0.41637358
1.1240683 -0.21348451 -0.41444644
1.1235626 -0.21466608 -0.41438857
1.121629 -0.21513447 -0.41344967
1.1193122 -0.21539707 -0.41227168
1.1188115 -0.21656685 -0.41221437
1.1189107 -0.21804427 -0.41252872
1.1184108 -0.21921709 -0.41247237
1.1193107 -0.22112034 -0.41328537
1.1188068 -0.22229744 -0.41322774
1.1206911 -0.22474203 -0.41465697
1.122774 -0.22731455 -0.41621393
1.1222624 -0.22850998 -0.41615537
1.1245321 -0.23121947 -0.41783533
1.1269926 -0.23405904 -0.41963917
1.1264718 -0.23527575 -0.41957957
1.1283424 -0.23782708 -0.42102057
1.1301864 -0.24038543 -0.4224487
1.1322287 -0.24307823 -0.42400554
1.1316963 -0.24432221 -0.42394462
1.1333312 -0.24681579 -0.4252507
1.1349701 -0.249332 -0.42656294
1.1344306 -0.25059217 -0.4265012
1.1362445 -0.25324234 -0.42792976
1.1378669 -0.25580058 -0.4292407
1.1373202 -0.25707772 -0.42917815
1.1391023 -0.2597634 -0.43059614
1.1406791 -0.26234606 -0.43188742
1.1424545 -0.265071 -0.4333089
1.1418968 -0.26637384 -0.4332451
1.1434851 -0.2690155 -0.43455276
1.1452254 -0.2717734 -0.43596143
1.1446605 -0.2730931 -0.43589678
1.1462142 -0.27576545 -0.43719178
1.1477376 -0.27843872 -0.43847075
1.1471658 -0.2797745 -0.43840533
1.1488713 -0.28259745 -0.43980718
1.1504221 -0.28534102 -0.44111323
1.1516124 -0.28786662 -0.44219002
1.1510305 -0.2892261 -0.44212344
1.1527038 -0.29210284 -0.44351777
1.1540495 -0.29478016 -0.44470373
1.1534607 -0.29615584 -0.44463634
