ply
format ascii 1.0
element vertex 1373
property float x
property float y
property float z
end_header
-0.29132348 -0.26591387 -0.48857337
-0.28881878 -0.26507032 -0.48316464
-0.2863174 -0.2641957 -0.47777215
-0.2861682 -0.26578593 -0.47698382
-0.28367195 -0.264865 -0.47161618
-0.2811779 -0.26391187 -0.46626258
-0.28103167 -0.26547068 -0.46548983
-0.27875513 -0.26470312 -0.46057406
-0.2762802 -0.26368594 -0.45528176
-0.27399984 -0.2628496 -0.45037687
-0.27385774 -0.26436418 -0.44962606
-0.27159205 -0.26349676 -0.4447631
-0.26933905 -0.26261213 -0.43993366
-0.26919964 -0.26409823 -0.43919697
-0.26694137 -0.26316038 -0.43437076
-0.2647918 -0.26231605 -0.42976305
-0.2626413 -0.26144063 -0.42516217
-0.26250577 -0.26288533 -0.42444602
-0.2603626 -0.26197332 -0.41987208
-0.25821912 -0.2610308 -0.415306
-0.25808612 -0.2624484 -0.41460326
-0.25615987 -0.2617205 -0.41046613
-0.25402674 -0.2607166 -0.40594095
-0.25389618 -0.26210853 -0.40525094
-0.25197494 -0.26131764 -0.40114307
-0.24995075 -0.26037338 -0.39684653
-0.2480358 -0.25953528 -0.39276618
-0.2479087 -0.2608901 -0.39209458
-0.24599531 -0.26001334 -0.38802874
-0.24408568 -0.2591142 -0.38397777
-0.24396086 -0.26044476 -0.3833182
-0.24215783 -0.2596405 -0.37948066
-0.24035837 -0.2588152 -0.3756571
-0.24023567 -0.26012295 -0.37500882
-0.2384379 -0.2592615 -0.3711994
-0.2367469 -0.25851345 -0.36759856
-0.23505919 -0.25774562 -0.36401063
-0.23493956 -0.25902057 -0.3633786
-0.23325355 -0.25821894 -0.35980424
-0.23167388 -0.25753504 -0.3564362
-0.2315562 -0.25878927 -0.35581446
-0.22987634 -0.2579364 -0.3522684
-0.22840442 -0.25734153 -0.34911805
-0.22828862 -0.25857577 -0.3485062
-0.22682048 -0.2579546 -0.34537187
-0.22525118 -0.25717294 -0.342055
-0.22378653 -0.25651392 -0.33893928
-0.22367342 -0.25771958 -0.33834162
-0.22221144 -0.25703275 -0.33523977
-0.22075209 -0.25632867 -0.33214885
-0.22064072 -0.2575158 -0.33156037
-0.21928573 -0.256929 -0.3286714
-0.2179324 -0.25632516 -0.32579106
-0.21782264 -0.2574951 -0.32521108
-0.21647345 -0.25686803 -0.32234663
-0.21522829 -0.25637317 -0.31967926
-0.21388058 -0.2557101 -0.31682843
-0.21377316 -0.2568551 -0.3162608
-0.21253261 -0.25632152 -0.31361482
-0.2112927 -0.25577098 -0.31097507
-0.21118674 -0.25690028 -0.31041527
-0.21005112 -0.2564798 -0.3079737
-0.20881565 -0.25589198 -0.30535462
-0.2087111 -0.2570063 -0.30480224
-0.2075789 -0.25654936 -0.30237874
-0.20644881 -0.25607944 -0.29996383
-0.20532012 -0.25559527 -0.29755604
-0.20521758 -0.25668815 -0.29701427
-0.20409003 -0.2561812 -0.29461548
-0.203067 -0.25582188 -0.29241055
-0.20296574 -0.25690117 -0.2918755
-0.20184322 -0.25636202 -0.28949726
-0.20082234 -0.2559684 -0.2873069
-0.20072235 -0.25703412 -0.2867786
-0.19970423 -0.25662267 -0.28459942
-0.19868729 -0.25619838 -0.28242669
-0.19756964 -0.2555956 -0.28007755
-0.19747153 -0.25664136 -0.27955914
-0.19645767 -0.25618422 -0.27740264
-0.19534451 -0.25554845 -0.275073
-0.19524767 -0.25658068 -0.2745613
-0.19423696 -0.25609076 -0.27242115
-0.19322741 -0.255588 -0.2702874
-0.19313177 -0.25660738 -0.26978207
-0.19212408 -0.25608537 -0.26765785
-0.19111751 -0.2555504 -0.26553997
-0.19021478 -0.2551777 -0.2636101
-0.19012089 -0.25617853 -0.26311395
-0.18921848 -0.2557865 -0.2611903
-0.18841815 -0.25555792 -0.25945038
-0.18832527 -0.25654802 -0.25895953
-0.18732457 -0.2559519 -0.25687227
-0.18642934 -0.25552592 -0.25497442
-0.18633758 -0.25650394 -0.2544896
-0.18584344 -0.25676882 -0.25329995
-0.18494911 -0.25631464 -0.2514122
-0.18435723 -0.25638804 -0.25005656
-0.1842666 -0.25735396 -0.24957775
-0.1835751 -0.25723508 -0.24805206
-0.18288574 -0.2571101 -0.24653299
-0.18279591 -0.25806746 -0.2460584
-0.18240641 -0.25847635 -0.24506384
-0.18191573 -0.2586941 -0.24389538
-0.181526 -0.2590917 -0.24290355
-0.18143685 -0.26004195 -0.24243249
-0.18114834 -0.26062056 -0.24161741
-0.18096252 -0.26138815 -0.24098025
-0.18087356 -0.26233625 -0.24051026
-0.18068624 -0.2630985 -0.23987119
-0.18050767 -0.26387575 -0.23924766
-0.18041885 -0.26482254 -0.23877832
-0.18044737 -0.26599392 -0.23850982
-0.18077448 -0.26774144 -0.23875093
-0.18119736 -0.26968092 -0.23915346
-0.18110783 -0.2706352 -0.2386804
-0.18123098 -0.27200383 -0.23856926
-0.1813549 -0.27337754 -0.23845835
-0.18126507 -0.27433485 -0.23798378
-0.18147428 -0.27588242 -0.23801586
-0.18177922 -0.27762485 -0.2382084
-0.18168893 -0.27858716 -0.23773135
-0.18198463 -0.2803213 -0.23790547
-0.18237878 -0.28225973 -0.23824352
-0.18237951 -0.28341308 -0.23791747
-0.18228859 -0.28438237 -0.23743695
-0.1822954 -0.28555048 -0.23712039
-0.18229704 -0.28670967 -0.23679473
-0.18220596 -0.28768036 -0.23631354
-0.18201156 -0.28843814 -0.23565981
-0.18191889 -0.2894046 -0.23517619
-0.1818279 -0.29037452 -0.23469539
-0.18172969 -0.29132938 -0.23420264
-0.18143389 -0.29187024 -0.23338185
-0.18104436 -0.29221046 -0.23240675
-0.18095371 -0.29317662 -0.2319278
-0.1806617 -0.29371575 -0.23111603
-0.1803662 -0.29424396 -0.23029955
-0.18027583 -0.29520717 -0.22982207
-0.17989534 -0.29554757 -0.22886732
-0.1797025 -0.29628733 -0.22822224
-0.1796124 -0.29724768 -0.22774616
-0.17922872 -0.29757 -0.22678931
-0.17884913 -0.29789606 -0.22584064
-0.17866069 -0.29863578 -0.2252055
-0.17857106 -0.29959115 -0.22473189
-0.17828235 -0.30010682 -0.22393428
-0.17799449 -0.30062082 -0.22313909
-0.17790513 -0.3015733 -0.22266693
-0.17781226 -0.3025179 -0.2221891
-0.17752568 -0.3030277 -0.22139797
-0.17743646 -0.30397865 -0.22092655
-0.17725074 -0.3047113 -0.22029953
-0.1770614 -0.30543402 -0.21966717
-0.17706265 -0.30658948 -0.21934165
-0.1769735 -0.30753967 -0.21887062
-0.17697385 -0.3086955 -0.21854301
-0.1768808 -0.3096375 -0.2180655
-0.1767916 -0.31058833 -0.21759416
-0.1767986 -0.3117628 -0.21727623
-0.17689332 -0.31314373 -0.21709743
-0.17680392 -0.3140966 -0.21662506
-0.1769006 -0.31548718 -0.21644798
-0.17689392 -0.31663707 -0.21610618
-0.17679983 -0.31758124 -0.21562567
-0.17671025 -0.3185361 -0.21515234
-0.17680544 -0.3199323 -0.21497032
-0.17734106 -0.3223877 -0.2154805
-0.17725092 -0.3233486 -0.21500416
-0.17751895 -0.32517475 -0.2150897
-0.17797576 -0.3274652 -0.21546903
-0.17788497 -0.32843286 -0.21498935
-0.17852502 -0.3311861 -0.21565041
-0.17889315 -0.33328596 -0.21588399
-0.17966023 -0.33637628 -0.21673574
-0.17956802 -0.33735922 -0.21624845
-0.17997967 -0.33959183 -0.2165424
-0.18071708 -0.34264472 -0.2173379
-0.18062392 -0.34363768 -0.21684568
-0.18101302 -0.34584 -0.21709731
-0.18165725 -0.34869358 -0.21773933
-0.18156324 -0.3496957 -0.21724255
-0.18215038 -0.3524251 -0.21779108
-0.1831554 -0.35623068 -0.21897618
-0.18405947 -0.359799 -0.22000109
-0.18396349 -0.36082205 -0.21949393
-0.1834185 -0.36068985 -0.2183025
-0.18441164 -0.36452132 -0.21945345
-0.18431522 -0.3655492 -0.21894391
-1.0078177 -0.38212338 -2.055686
-0.8929982 -0.36541605 -1.8033329
-0.89250094 -0.37071642 -1.8007054
-0.8760284 -0.369144 -1.7642663
-0.8590979 -0.36716256 -1.7269182
-0.85861975 -0.37225914 -1.7243917
-0.8456388 -0.37173128 -1.6954731
-0.8335266 -0.37143585 -1.6684335
-0.8330627 -0.37638047 -1.6659824
-0.82247335 -0.37657052 -1.6422145
-0.81200176 -0.37668324 -1.6187323
-0.8019495 -0.37686634 -1.5961691
-0.80150324 -0.38162336 -1.593811
-0.79104906 -0.38141692 -1.5704594
-0.7811211 -0.38134235 -1.5482478
-0.7806863 -0.38597623 -1.5459508
-0.7707213 -0.38569388 -1.5237159
-0.7616676 -0.38576114 -1.503422
-0.76124364 -0.39027992 -1.501182
-0.7518279 -0.38998115 -1.4801819
-0.744602 -0.39075026 -1.4637805
-0.7378857 -0.39170846 -1.4484667
-0.7374749 -0.39608705 -1.446296
-0.73256123 -0.39793277 -1.4347651
-0.7290536 -0.40051845 -1.4261717
-0.72864735 -0.40484872 -1.4240249
-0.7260698 -0.40791398 -1.4173775
-0.7236106 -0.4110197 -1.4109832
-0.7232069 -0.41532305 -1.40885
-0.7238592 -0.42026293 -1.4088998
-0.72696084 -0.42671007 -1.4140042
-0.73388475 -0.43556014 -1.4269816
-0.7334739 -0.43993938 -1.4248108
-0.73755276 -0.4471463 -1.4318863
-0.7691783 -0.4719503 -1.4956235
-0.7687455 -0.4765633 -1.4933367
-0.7849321 -0.49198177 -1.5251807
-0.7855535 -0.49740043 -1.5250245
-0.78511006 -0.50212675 -1.5226816
-0.78616863 -0.50786024 -1.5234146
-0.7846485 -0.5118674 -1.5188658
-0.7876184 -0.5189322 -1.5234985
-0.7871726 -0.52368313 -1.5211434
-0.7853519 -0.52747434 -1.515983
-0.7854597 -0.5326061 -1.514759
-0.7850145 -0.5373518 -1.5124065
-0.78019565 -0.53895473 -1.5011573
-0.77814937 -0.5425089 -1.4955599
-0.77770776 -0.54721606 -1.4932264
-0.79363626 -0.5640246 -1.5240954
-0.38823768 -0.26668498 -0.7011798
-0.37727445 -0.26078045 -0.67831546
-0.37707493 -0.26290727 -0.6772612
-0.37352407 -0.2624638 -0.66943604
-0.3694804 -0.26159248 -0.6606295
-0.36928523 -0.26367268 -0.65959835
-0.3657882 -0.2631517 -0.6519159
-0.3627265 -0.26293075 -0.64512277
-0.3594637 -0.26250845 -0.63793665
-0.35927415 -0.2645287 -0.6369352
-0.35622787 -0.2642187 -0.630202
-0.35317728 -0.26386502 -0.62347144
-0.35299122 -0.26584807 -0.6224884
-0.34994614 -0.26543885 -0.6157862
-0.34670314 -0.26482245 -0.6087
-0.34652072 -0.26676694 -0.60773605
-0.34349304 -0.26627058 -0.60109764
-0.3404606 -0.26573008 -0.5944613
-0.33743173 -0.26515228 -0.5878434
-0.33725452 -0.26704097 -0.58690715
-0.3340293 -0.26622877 -0.57991666
-0.3310086 -0.265556 -0.5733443
-0.330835 -0.26740614 -0.57242715
-0.32782754 -0.26668474 -0.56589824
-0.3250406 -0.2661247 -0.5598172
-0.32487038 -0.26793912 -0.5589177
-0.3218715 -0.26712635 -0.55243427
-0.31908366 -0.2664707 -0.54637855
-0.31610292 -0.26559561 -0.5399534
-0.3159378 -0.26735577 -0.53908086
-0.31315807 -0.2666127 -0.53306824
-0.31018618 -0.26564676 -0.526689
-0.3100244 -0.2673712 -0.52583414
-0.30725342 -0.26654136 -0.5198659
-0.30429018 -0.26548433 -0.513532
-0.30413175 -0.26717308 -0.51269484
-0.30138007 -0.26626703 -0.5067915
-0.2986306 -0.26532575 -0.50090325
-0.29609033 -0.26455927 -0.4954336
-0.29593658 -0.26619798 -0.49462125
-0.29299068 -0.26496196 -0.48837724
-0.29067245 -0.26433617 -0.48336458
-0.2905218 -0.26594204 -0.4825685
-0.28779972 -0.26484433 -0.47678626
-0.28549948 -0.2641557 -0.4718318
-0.28535175 -0.26573023 -0.47105125
-0.2828416 -0.26476917 -0.4657046
-0.28054902 -0.2640086 -0.46078786
-0.27804467 -0.2629862 -0.4554717
-0.27790123 -0.26451507 -0.4547138
-0.27561572 -0.26368195 -0.44983354
-0.2733334 -0.2628209 -0.44496852
-0.27319264 -0.2643212 -0.44422477
-0.27092457 -0.26342884 -0.43940058
-0.2686496 -0.26249728 -0.4345722
-0.26851153 -0.26396912 -0.43384254
-0.26624078 -0.26299497 -0.42903572
-0.2640792 -0.2621152 -0.42444637
-0.2620204 -0.2613248 -0.4200617
-0.26188615 -0.26275596 -0.41935226
-0.2597337 -0.2618125 -0.41480163
-0.25768673 -0.26096383 -0.4104601
-0.25755495 -0.2623686 -0.40976372
-0.25540504 -0.26135367 -0.40523914
-0.25347182 -0.2605699 -0.40113378
-0.25334245 -0.26194903 -0.4004501
-0.2513044 -0.2609968 -0.39615816
-0.24937654 -0.2601512 -0.3920824
-0.247449 -0.25927907 -0.38801503
-0.2473231 -0.26062107 -0.38734975
-0.24539895 -0.25971246 -0.3833004
-0.24358273 -0.25891262 -0.37946165
-0.24345903 -0.26023105 -0.37880805
-0.24164745 -0.2593988 -0.37498894
-0.23983648 -0.25854173 -0.3711783
-0.23971494 -0.25983733 -0.37053603
-0.23790984 -0.25894943 -0.36674732
-0.23620945 -0.25817257 -0.3631614
-0.23461515 -0.2575108 -0.35978016
-0.23449661 -0.2587743 -0.3591538
-0.23290636 -0.2580842 -0.35578972
-0.23121408 -0.2572354 -0.35224253
-0.23109747 -0.25847822 -0.35162643
-0.22961576 -0.2578776 -0.34847984
-0.22813585 -0.25725845 -0.3453426
-0.228021 -0.2584827 -0.3447357
-0.22644113 -0.25769484 -0.34142283
-0.22486399 -0.25688818 -0.33812144
-0.22349498 -0.256348 -0.33520994
-0.2233828 -0.2575437 -0.3346172
-0.2219136 -0.25683376 -0.33152992
-0.22044525 -0.256104 -0.32845014
-0.22033481 -0.25728115 -0.3278666
-0.21907672 -0.25681993 -0.325181
-0.21782015 -0.2563431 -0.3225032
-0.21656589 -0.25585178 -0.3198348
-0.21645766 -0.25700533 -0.31926295
-0.21499848 -0.2561883 -0.31622866
-0.21374805 -0.25565633 -0.31358042
-0.21364143 -0.25679275 -0.31301707
-0.212497 -0.25639102 -0.310569
-0.21125023 -0.2558205 -0.3079399
-0.21114501 -0.25694194 -0.30738398
-0.21000315 -0.25650257 -0.30495244
-0.20886348 -0.2560501 -0.3025295
-0.20762256 -0.25542733 -0.29992846
-0.20751943 -0.25652668 -0.2993835
-0.20648563 -0.25619537 -0.2971631
-0.20524739 -0.25553346 -0.29457927
-0.2051456 -0.2566185 -0.2940414
-0.20421806 -0.25641453 -0.2920225
-0.20308633 -0.25587714 -0.28964165
-0.20298573 -0.25694934 -0.28911012
-0.20195894 -0.2565536 -0.28692377
-0.20083149 -0.25598282 -0.284562
-0.19990891 -0.2557236 -0.28257006
-0.19981013 -0.25677648 -0.2820481
-0.1986849 -0.25616983 -0.27970156
-0.19766359 -0.25571555 -0.27754414
-0.19756608 -0.25675488 -0.27702892
-0.19644533 -0.25611523 -0.27470186
-0.19542716 -0.2556283 -0.2725609
-0.19533092 -0.25665405 -0.27205238
-0.19431454 -0.25614777 -0.26992092
-0.19340152 -0.25579956 -0.26797578
-0.19238748 -0.25526825 -0.2658567
-0.19229299 -0.2562755 -0.26535738
-0.19138272 -0.25589806 -0.26342678
-0.19047506 -0.25551173 -0.2615045
-0.19038163 -0.25650758 -0.26101083
-0.18947569 -0.25610444 -0.25909725
-0.18857107 -0.25569025 -0.25718975
-0.18847871 -0.25667468 -0.25670174
-0.1878787 -0.25677258 -0.25533012
-0.18707636 -0.2565072 -0.25360918
-0.18637975 -0.25641653 -0.25207508
-0.1862886 -0.25738811 -0.25159344
-0.1855912 -0.2572812 -0.2500623
-0.18499567 -0.2573463 -0.24871004
-0.18490525 -0.25831005 -0.24823228
-0.18431208 -0.25836697 -0.24688768
-0.1840194 -0.2589601 -0.24606286
-0.18392944 -0.25991887 -0.24558756
-0.18343732 -0.26014224 -0.24442169
-0.18324731 -0.26091388 -0.24377577
-0.18295752 -0.26149976 -0.24295948
-0.18286803 -0.26245356 -0.24248666
-0.18277921 -0.26340866 -0.24201499
-0.1824954 -0.26399902 -0.24121077
-0.18240604 -0.26495147 -0.24073862
-0.18253289 -0.2663119 -0.24063414
-0.18296218 -0.26824915 -0.24104217
-0.18287234 -0.26920682 -0.24056742
-0.18299855 -0.2705776 -0.2404585
-0.18322594 -0.27214634 -0.24051967
-0.18344104 -0.27369675 -0.24055855
-0.18335064 -0.2746604 -0.24008085
-0.1835628 -0.27621272 -0.24011253
-0.18377818 -0.27777654 -0.2401482
-0.18368736 -0.27874452 -0.23966834
-0.18388909 -0.28028917 -0.23967892
-0.1841951 -0.28204522 -0.2398626
-0.18410383 -0.28301817 -0.2393803
-0.18420595 -0.28437725 -0.23922083
-0.18430892 -0.28574133 -0.23906179
-0.18441369 -0.28711239 -0.23890482
-0.18432201 -0.28808948 -0.23842044
-0.18402983 -0.28865942 -0.23760335
-0.1841223 -0.2900103 -0.23742452
-0.18403062 -0.2909873 -0.2369402
-0.18364218 -0.29135397 -0.23596558
-0.18353741 -0.29230133 -0.23546037
-0.18344595 -0.2932761 -0.23497716
-0.1830572 -0.2936318 -0.23400499
-0.18275927 -0.29417226 -0.23318346
-0.18226834 -0.29430392 -0.23204646
-0.1821775 -0.29527217 -0.23156647
-0.1817902 -0.29561278 -0.23060185
-0.18160035 -0.296368 -0.229961
-0.18150976 -0.2973334 -0.22948243
-0.18121386 -0.2978587 -0.22866973
-0.18073294 -0.29798234 -0.22755742
-0.18064277 -0.2989434 -0.227081
-0.18035892 -0.2994843 -0.22629088
-0.1799696 -0.29979214 -0.22533111
-0.17958848 -0.30011263 -0.2243861
-0.17949885 -0.30106795 -0.2239125
-0.17949982 -0.30222303 -0.22358476
-0.17921102 -0.30273843 -0.22279084
-0.17912146 -0.30369297 -0.22231765
-0.17893076 -0.3044219 -0.2216824
-0.17873704 -0.30514225 -0.2210428
-0.17874202 -0.30630755 -0.22072114
-0.17865254 -0.30726132 -0.22024834
-0.17855963 -0.30820727 -0.21977006
-0.1784666 -0.3091529 -0.21929164
-0.17837712 -0.3101066 -0.21881887
-0.17847441 -0.31148848 -0.218642
-0.1784814 -0.31266594 -0.2183214
-0.17839174 -0.31362173 -0.21784759
-0.17839377 -0.31479016 -0.21751837
-0.17848547 -0.31616914 -0.21732987
-0.17838538 -0.31710303 -0.21683902
-0.17829552 -0.31806073 -0.21636425
-0.17867449 -0.32012272 -0.2166239
-0.17893533 -0.32191396 -0.21669646
-0.17884491 -0.3228777 -0.2162187
-0.17920843 -0.32492298 -0.21644853
-0.17967705 -0.32722792 -0.21683964
-0.17958593 -0.32819915 -0.21635818
-0.180115 -0.33066493 -0.21683866
-0.18094365 -0.33386666 -0.21777984
-0.18149045 -0.33640072 -0.21828051
-0.18139781 -0.33738813 -0.21779104
-0.18198782 -0.34004545 -0.21835332
-0.18251368 -0.34255767 -0.21881334
-0.18242013 -0.34355474 -0.21831907
-0.18313621 -0.34655452 -0.21906582
-0.1835148 -0.34873122 -0.21929191
-0.18342036 -0.34973782 -0.21879292
-0.18402217 -0.35248595 -0.21935572
-0.18468028 -0.35538816 -0.22000052
-0.18559836 -0.35895935 -0.22103643
-0.1855022 -0.3599843 -0.22052832
-0.18646361 -0.3636935 -0.22162181
-0.1862043 -0.36431274 -0.22086431
-0.18610752 -0.36534443 -0.22035287
-0.18689957 -0.3686568 -0.22118047
-1.01621 -0.37995744 -2.0595207
-1.0156459 -0.3859694 -2.0565405
-0.92339486 -0.37299952 -1.855112
-0.8999885 -0.36888522 -1.8042411
-0.8830652 -0.3672249 -1.767083
-0.8825768 -0.3724312 -1.7645022
-0.8647843 -0.3700708 -1.7256122
-0.85142237 -0.3694515 -1.696075
-0.8509516 -0.37446916 -1.6935875
-0.83912784 -0.37430075 -1.6673418
-0.8282584 -0.37442622 -1.6431338
-0.8181142 -0.3747565 -1.62048
-0.81766194 -0.3795774 -1.61809
-0.8075651 -0.37974033 -1.5955896
-0.7970174 -0.3795561 -1.572186
-0.79657674 -0.3842531 -1.5698576
-0.7865266 -0.3841199 -1.547546
-0.77649176 -0.38386795 -1.5253024
-0.7760624 -0.3884443 -1.5230339
-0.7669524 -0.3884856 -1.5027627
-0.7579153 -0.38845086 -1.4826754
-0.75024074 -0.3890321 -1.4654416
-0.7498259 -0.3934539 -1.4632497
-0.7435174 -0.39464074 -1.4488798
-0.7394053 -0.39696953 -1.4390665
-0.7389961 -0.4013308 -1.4369045
-0.7354818 -0.40392584 -1.4283444
-0.73341286 -0.4073113 -1.4227715
-0.7330065 -0.41164243 -1.4206244
-0.7314489 -0.41529563 -1.4161115
-0.7334955 -0.4210799 -1.4190024
-0.73898745 -0.42897174 -1.4289501
-0.7385768 -0.43334848 -1.4267805
-0.7440395 -0.4413409 -1.4366338
-0.75619644 -0.45357817 -1.460156
-0.75577486 -0.45807198 -1.4579283
-0.79828984 -0.48986375 -1.5433481
-0.79998523 -0.4960072 -1.5453547
-0.79953676 -0.50078756 -1.542985
-0.80010444 -0.5062345 -1.5426837
-0.80148536 -0.51223433 -1.5440323
-0.7993214 -0.5158854 -1.5381719
-0.79887223 -0.520673 -1.5357987
-0.8000911 -0.52660006 -1.5368075
-0.7992166 -0.5311056 -1.5335693
-0.79876673 -0.53590107 -1.5311922
-0.7978552 -0.5403719 -1.5278815
-0.7923226 -0.54155374 -1.5152385
-0.791876 -0.54631376 -1.5128789
-0.7901004 -0.5501116 -1.5078398
-0.80485266 -0.5659707 -1.5360937
-0.40535513 -0.2764423 -0.7307925
-0.40514028 -0.27873206 -0.7296574
-0.38136497 -0.26331758 -0.68121004
-0.37624744 -0.26172754 -0.67028594
-0.37604976 -0.26383445 -0.6692415
-0.3717286 -0.2627576 -0.659941
-0.36817682 -0.2622232 -0.6521958
-0.36798367 -0.26428202 -0.65117526
-0.36534512 -0.26440203 -0.64527303
-0.36183932 -0.26379457 -0.63765115
-0.35876265 -0.26348728 -0.6308973
-0.35857472 -0.26549032 -0.6299043
-0.35530064 -0.26496089 -0.6227753
-0.35223424 -0.26456037 -0.61607116
-0.35204995 -0.26652485 -0.6150973
-0.34877685 -0.26589012 -0.6080007
-0.34572795 -0.26540244 -0.6013604
-0.34554726 -0.26732835 -0.6004057
-0.34228313 -0.26659486 -0.59335726
-0.33923483 -0.26600575 -0.58674747
-0.3359781 -0.2651937 -0.57973814
-0.3358029 -0.26706102 -0.5788125
-0.33277136 -0.2663845 -0.57226497
-0.32995334 -0.26585945 -0.56614894
-0.3297815 -0.26769102 -0.565241
-0.32676682 -0.2669306 -0.5587551
-0.32394713 -0.2663091 -0.55266285
-0.32377866 -0.2681049 -0.55177265
-0.3207637 -0.26724502 -0.5453149
-0.3177629 -0.26635793 -0.5388962
-0.31475598 -0.26542482 -0.5324772
-0.31459272 -0.26716498 -0.53161454
-0.3120168 -0.26658544 -0.52605236
-0.3090277 -0.2655714 -0.51969624
-0.30886766 -0.2672773 -0.51885056
-0.30588472 -0.26620868 -0.51252383
-0.30311266 -0.26530835 -0.5066176
-0.30295596 -0.26697862 -0.50578964
-0.30018884 -0.26602703 -0.49990916
-0.29763162 -0.2652503 -0.49444532
-0.29487133 -0.26423207 -0.48859915
-0.29471934 -0.2658523 -0.48779598
-0.2919736 -0.26479277 -0.4819941
-0.28964382 -0.26412857 -0.47700375
-0.28949475 -0.2657174 -0.47621617
-0.28697425 -0.2648046 -0.4708729
-0.28465134 -0.26406732 -0.46591875
-0.28450507 -0.26562616 -0.46514598
-0.2819917 -0.26463646 -0.45984074
-0.2794711 -0.2636045 -0.45453164
-0.27716896 -0.26277626 -0.44964978
-0.27702698 -0.2642895 -0.44889963
-0.27472916 -0.2634188 -0.44403964
-0.27264982 -0.26275977 -0.4396047
-0.2725104 -0.2642459 -0.438868
-0.2700052 -0.26306397 -0.43363613
-0.26793265 -0.26233846 -0.4292354
-0.26565096 -0.26134557 -0.4244463
-0.26551557 -0.2627889 -0.42373082
-0.2634457 -0.26199374 -0.41935608
-0.26127172 -0.2610488 -0.4147927
-0.26113877 -0.2624657 -0.4140903
-0.259078 -0.26160905 -0.40975344
-0.25701943 -0.26072648 -0.40542883
-0.2568889 -0.26211768 -0.40473917
-0.25483584 -0.26119885 -0.40043727
-0.25278482 -0.2602539 -0.3961474
-0.25084102 -0.2594108 -0.39206672
-0.25071403 -0.2607642 -0.3913958
-0.24877363 -0.2598847 -0.38733315
-0.24683699 -0.25898275 -0.38328528
-0.2467123 -0.26031187 -0.3826264
-0.2448839 -0.259505 -0.378792
-0.24305765 -0.25867525 -0.3749689
-0.24293509 -0.25998157 -0.3743213
-0.24111201 -0.2591175 -0.37051514
-0.2392924 -0.25823233 -0.36672276
-0.23758096 -0.25746125 -0.36313814
-0.23746155 -0.25873405 -0.3625072
-0.23596266 -0.25820458 -0.3593259
-0.23415011 -0.2572421 -0.35557136
-0.23403263 -0.2584942 -0.35495067
-0.2324337 -0.25777715 -0.35160074
-0.23094237 -0.25718144 -0.34845525
-0.2308267 -0.25841427 -0.3478441
-0.22923239 -0.25764793 -0.34451857
-0.22774449 -0.2570038 -0.34139466
-0.22626032 -0.2563438 -0.3382836
-0.22614734 -0.25754803 -0.33768663
-0.2246648 -0.2568589 -0.33458754
-0.2232893 -0.2562975 -0.33168977
-0.22317798 -0.2574839 -0.33110166
-0.22169974 -0.25674906 -0.32802525
-0.22032835 -0.25614417 -0.32514912
-0.22021872 -0.25731272 -0.32456985
-0.21895467 -0.25683206 -0.3218968
-0.21769208 -0.2563357 -0.3192315
-0.21632622 -0.2556723 -0.31638446
-0.21621886 -0.2568166 -0.3158172
-0.21496004 -0.25628027 -0.31317177
-0.21370274 -0.25572827 -0.31053418
-0.21359685 -0.25685686 -0.3099747
-0.21244621 -0.25643623 -0.30753663
-0.21119171 -0.25584447 -0.3049167
-0.21108723 -0.25695807 -0.30436465
-0.20994 -0.256501 -0.30194464
-0.20879412 -0.25602967 -0.2995317
-0.2077529 -0.2557013 -0.2973104
-0.20765036 -0.25679418 -0.29676867
-0.2064046 -0.25612924 -0.29418916
-0.2053665 -0.25576726 -0.2919845
-0.20526531 -0.25684586 -0.29144982
-0.20422983 -0.25646585 -0.2892562
-0.20319462 -0.25607157 -0.28706723
-0.20309463 -0.2571373 -0.28653893
-0.20195949 -0.25656247 -0.2841796
-0.20092832 -0.2561368 -0.2820086
-0.19979487 -0.25553265 -0.27966145
-0.19969682 -0.2565777 -0.27914336
-0.1986687 -0.2561192 -0.27698863
-0.19753978 -0.25548205 -0.27466097
-0.19744301 -0.25651354 -0.27414963
-0.19651985 -0.25618938 -0.27218977
-0.19549733 -0.2556881 -0.27005973
-0.1954017 -0.25670746 -0.2695544
-0.1944826 -0.25635615 -0.26761135
-0.1935631 -0.25599095 -0.2656714
-0.19254635 -0.25544906 -0.26356587
-0.1924524 -0.2564506 -0.2630694
-0.1915372 -0.2560587 -0.26114663
-0.19072889 -0.2558358 -0.25941306
-0.19063592 -0.25682667 -0.25892186
-0.18993007 -0.25676274 -0.25737053
-0.18912089 -0.25651026 -0.2556435
-0.1890288 -0.25749186 -0.2551569
-0.18832313 -0.25740257 -0.25361323
-0.18772212 -0.25748682 -0.25225246
-0.1871215 -0.25756347 -0.25089478
-0.18703046 -0.25853366 -0.25041384
-0.18663473 -0.25896215 -0.24941081
-0.18613747 -0.25920424 -0.24823543
-0.18604691 -0.26016945 -0.24775696
-0.18565248 -0.26058698 -0.24675995
-0.18536085 -0.26118562 -0.24593958
-0.18526858 -0.26214355 -0.24545935
-0.18517835 -0.26310518 -0.24498263
-0.18488903 -0.2637014 -0.24416806
-0.18460631 -0.26430652 -0.24336559
-0.18451634 -0.2652654 -0.24289024
-0.18464123 -0.2666239 -0.24277794
-0.18496811 -0.2683634 -0.24300553
-0.18487774 -0.26932675 -0.24252796
-0.18510886 -0.2708961 -0.24259144
-0.1852317 -0.27226582 -0.24247141
-0.18554443 -0.27400014 -0.24266897
-0.18545343 -0.27497008 -0.24218813
-0.18567139 -0.27653277 -0.24222425
-0.18588546 -0.27809304 -0.24225233
-0.18579406 -0.27906734 -0.24176936
-0.18610625 -0.280826 -0.24195874
-0.18631369 -0.28238702 -0.24197192
-0.18622182 -0.2833663 -0.24148646
-0.18623278 -0.2845481 -0.24117161
-0.18644355 -0.28612658 -0.24118717
-0.1865372 -0.28747764 -0.24100757
-0.18644494 -0.28846115 -0.24052
-0.18645805 -0.28965575 -0.24020627
-0.18615806 -0.2902224 -0.23937643
-0.18606585 -0.2912052 -0.23888923
-0.18596438 -0.29216918 -0.23838685
-0.18556231 -0.29252094 -0.23739171
-0.18547031 -0.29350144 -0.23690565
-0.18507297 -0.29385495 -0.23592052
-0.18477237 -0.29440275 -0.2350948
-0.18428163 -0.2945533 -0.23396023
-0.18419026 -0.29552725 -0.23347741
-0.18370034 -0.29566923 -0.23234713
-0.18331069 -0.2960146 -0.23138149
-0.18321979 -0.29698357 -0.23090115
-0.18292582 -0.2975234 -0.23009245
-0.1825367 -0.29785782 -0.22913107
-0.18244614 -0.29882318 -0.22865252
-0.18205751 -0.29915094 -0.22769418
-0.18166909 -0.29947403 -0.2267377
-0.18138018 -0.30000645 -0.2259423
-0.18129015 -0.30096608 -0.22546658
-0.18109752 -0.30170277 -0.22482678
-0.18090177 -0.30243072 -0.22418246
-0.18081187 -0.30338886 -0.2237075
-0.18072197 -0.30434692 -0.22323248
-0.18033293 -0.3046443 -0.22228195
-0.18024325 -0.30560026 -0.22180805
-0.1803437 -0.3069796 -0.22163552
-0.18015572 -0.3077175 -0.22100563
-0.1801542 -0.30887204 -0.22067074
-0.1800644 -0.30982932 -0.2201962
-0.17997462 -0.31078666 -0.21972173
-0.18007687 -0.31218 -0.21954916
-0.17998692 -0.31313866 -0.21907392
-0.18008347 -0.31452397 -0.2188909
-0.17998664 -0.31546846 -0.21840444
-0.17989658 -0.31642842 -0.21792856
-0.18008974 -0.31804392 -0.21789435
-0.18037702 -0.31988308 -0.21800517
-0.18074849 -0.3219254 -0.21824498
-0.18065766 -0.3228936 -0.21776503
-0.18110707 -0.3251314 -0.21812199
-0.18156964 -0.32740992 -0.21849658
-0.18147805 -0.32838613 -0.21801265
-0.18211256 -0.33108822 -0.21864796
-0.18273623 -0.33377752 -0.21926288
-0.18264365 -0.33476427 -0.21877372
-0.18340395 -0.3378013 -0.2195926
-0.18403028 -0.34053043 -0.22020195
-0.18471727 -0.34341952 -0.2209003
-0.18462306 -0.3444236 -0.22040255
-0.18524009 -0.34716314 -0.22098826
-0.1859007 -0.35002235 -0.22163652
-0.18580548 -0.35103723 -0.22113343
-0.18611214 -0.35304362 -0.22123934
-0.18671295 -0.35578582 -0.2217882
-0.18661697 -0.35680884 -0.22128107
-0.18735217 -0.3599054 -0.2220271
-0.18826395 -0.3634592 -0.2230345
-0.18931124 -0.3673721 -0.22424021
-0.18921319 -0.36841717 -0.22372214
-0.18901934 -0.3692198 -0.22306061
-0.18967538 -0.3721798 -0.22366975
-0.18957688 -0.37322977 -0.22314925
-1.0194306 -0.38204616 -2.0506618
-0.93177724 -0.3713759 -1.8601569
-0.90745306 -0.36702925 -1.8076907
-0.9069543 -0.37234604 -1.8050551
-0.8892881 -0.37036863 -1.7666099
-0.87098527 -0.36789516 -1.7269014
-0.87050676 -0.37299517 -1.7243732
-0.8564828 -0.37207747 -1.6936657
-0.84452105 -0.37191415 -1.6672953
-0.84405714 -0.37685862 -1.6648443
-0.8339037 -0.37731034 -1.6422899
-0.82371455 -0.37761936 -1.6196978
-0.8139925 -0.3780247 -1.5981098
-0.81354535 -0.38279077 -1.5957471
-0.8029424 -0.38258353 -1.57239
-0.7928214 -0.38248307 -1.5500667
-0.7923858 -0.38712552 -1.5477654
-0.7822781 -0.38684207 -1.5255241
-0.7727091 -0.38670984 -1.504429
-0.7722845 -0.39123476 -1.502186
-0.7631933 -0.39117563 -1.4821249
-0.7558666 -0.39194742 -1.465721
-0.74951005 -0.39315432 -1.4513344
-0.7490981 -0.39754465 -1.449158
-0.74502665 -0.39990294 -1.4394855
-0.7415057 -0.40252224 -1.4309537
-0.74109775 -0.40687013 -1.4287984
-0.7398278 -0.41072223 -1.4248822
-0.7387192 -0.4146568 -1.4212989
-0.73831224 -0.41899484 -1.4191483
-0.74232024 -0.4259596 -1.4259905
-0.75025773 -0.4353471 -1.440812
-0.75801647 -0.444737 -1.4552381
-0.75759715 -0.44920683 -1.4530224
-0.8030332 -0.4821802 -1.5438548
-0.81479096 -0.49460673 -1.5662366
-0.81433725 -0.49944273 -1.5638393
-0.81534046 -0.5052135 -1.5643898
-0.81461686 -0.50988424 -1.5614442
-0.81416243 -0.5147278 -1.5590432
-0.8142483 -0.5199288 -1.5577322
-0.8117361 -0.5234002 -1.5511824
-0.8108856 -0.527966 -1.5479866
-0.8104323 -0.5327974 -1.5455917
-0.81053996 -0.538015 -1.5443239
-0.8100662 -0.54283595 -1.5418867
-0.80961263 -0.54767066 -1.53949
-0.80396533 -0.54882306 -1.5266855
-0.80209875 -0.55261123 -1.5214702
-0.8016491 -0.557404 -1.5190942
-0.81319666 -0.5709474 -1.5406897
-0.61918306 -0.4333209 -1.151917
-0.3836926 -0.26223913 -0.6811948
-0.38349205 -0.26437667 -0.6801352
-0.37767625 -0.26226532 -0.6679001
-0.37461856 -0.262183 -0.6611708
-0.3744231 -0.26426643 -0.660138
-0.37038764 -0.26336548 -0.65148574
-0.367727 -0.26348972 -0.64557385
-0.3641755 -0.2628754 -0.63790745
-0.36398584 -0.264897 -0.6369053
-0.3606762 -0.26440796 -0.629737
-0.35737878 -0.26388583 -0.6226054
-0.35719287 -0.2658675 -0.62162304
-0.35410714 -0.26545566 -0.61492705
-0.35081872 -0.2648349 -0.6078435
-0.35063642 -0.26677802 -0.60688025
-0.3475678 -0.2662787 -0.60024726
-0.34448677 -0.26572877 -0.59360147
-0.34120342 -0.26496443 -0.5865707
-0.34102648 -0.26685032 -0.58563584
-0.33796975 -0.2662192 -0.5790671
-0.3349167 -0.2655511 -0.5725172
-0.33474326 -0.26739985 -0.57160074
-0.3316952 -0.2666759 -0.56507796
-0.32865047 -0.2659146 -0.55857325
-0.3284805 -0.2677262 -0.5576752
-0.32565212 -0.26710263 -0.55160856
-0.32282728 -0.26644495 -0.54555964
-0.31980464 -0.2655659 -0.5391378
-0.31963965 -0.26732466 -0.5382659
-0.31661245 -0.2663809 -0.5318527
-0.31380856 -0.2656091 -0.52588296
-0.3136469 -0.2673321 -0.52502877
-0.3108483 -0.26650932 -0.51908535
-0.30783314 -0.26543856 -0.5127353
-0.30767485 -0.2671259 -0.5118989
-0.30489424 -0.26622576 -0.50601757
-0.30210665 -0.26528132 -0.50013363
-0.2995318 -0.26451233 -0.49466893
-0.29937816 -0.2661497 -0.49385726
-0.29639122 -0.2649105 -0.48761803
-0.2938342 -0.26407033 -0.48221326
-0.2936838 -0.26567352 -0.48141852
-0.29113147 -0.26478654 -0.47603762
-0.28880003 -0.26409563 -0.4710879
-0.28865242 -0.26566884 -0.47030804
-0.28610796 -0.26470545 -0.46496657
-0.2835755 -0.2637203 -0.45965785
-0.28124455 -0.2629169 -0.45474172
-0.28110126 -0.2644444 -0.4539845
-0.27878433 -0.2636088 -0.4491086
-0.27646992 -0.26274452 -0.44424656
-0.27632928 -0.2642435 -0.44350347
-0.27402762 -0.26334608 -0.4386792
-0.27172002 -0.26241064 -0.43385273
-0.27158207 -0.26388112 -0.4331238
-0.2692749 -0.2628988 -0.42831182
-0.26719064 -0.2621385 -0.42392808
-0.26500055 -0.26122853 -0.41935378
-0.2648664 -0.26265833 -0.418645
-0.2625721 -0.26158243 -0.41388845
-0.26060173 -0.26085293 -0.40974733
-0.26047006 -0.2622563 -0.40905166
-0.25839764 -0.2613657 -0.40473163
-0.25632757 -0.26044935 -0.40042424
-0.25619832 -0.26182702 -0.3997413
-0.25424123 -0.26100385 -0.39565656
-0.2522845 -0.26015407 -0.39158025
-0.25022408 -0.2591509 -0.38731927
-0.25009832 -0.2604915 -0.3866547
-0.24814872 -0.25958204 -0.3826114
-0.24630558 -0.25877765 -0.37877288
-0.24618202 -0.26009467 -0.37812
-0.24434504 -0.2592597 -0.37430394
-0.24240299 -0.25826645 -0.37030149
-0.24228163 -0.25955993 -0.3696603
-0.24055552 -0.25880197 -0.3660668
-0.23883143 -0.25802267 -0.36248404
-0.2372162 -0.25736007 -0.35910797
-0.2370978 -0.25862214 -0.35848233
-0.23548426 -0.2579281 -0.355119
-0.23376933 -0.2570782 -0.35157683
-0.23365286 -0.2583196 -0.35096145
-0.2321506 -0.2577166 -0.3478176
-0.23054473 -0.25695407 -0.34449106
-0.23043008 -0.25817618 -0.34388524
-0.228828 -0.25738502 -0.34057534
-0.22743838 -0.2568604 -0.33765766
-0.22594602 -0.25617594 -0.3345593
-0.22583398 -0.2573702 -0.33396724
-0.22444853 -0.25680217 -0.33107132
-0.2229604 -0.25607195 -0.3279955
-0.22285004 -0.25724837 -0.32741234
-0.22146873 -0.2566369 -0.32453814
-0.22019565 -0.25615907 -0.32186437
-0.21892403 -0.25566554 -0.3191984
-0.21881595 -0.25681767 -0.31862727
-0.21754576 -0.25629947 -0.31597158
-0.21627787 -0.25576672 -0.3133251
-0.21617125 -0.2569031 -0.31276175
-0.21490555 -0.2563468 -0.31012696
-0.21374662 -0.25592935 -0.3076879
-0.2136414 -0.25705078 -0.30713198
-0.21237932 -0.25645593 -0.3045163
-0.21122304 -0.2560009 -0.3020939
-0.21006885 -0.25553277 -0.29967996
-0.20996572 -0.2566321 -0.299135
-0.20881356 -0.25614253 -0.2967317
-0.20755874 -0.2554804 -0.29415146
-0.207457 -0.25656474 -0.2936139
-0.20641212 -0.2561985 -0.29141194
-0.20536928 -0.25582072 -0.2892178
-0.20526874 -0.2568922 -0.28868663
-0.20422675 -0.2564936 -0.28650036
-0.20308343 -0.2559213 -0.28414044
-0.20204376 -0.25549608 -0.281967
-0.20194511 -0.25654757 -0.28144577
-0.20080516 -0.25594044 -0.27910337
-0.19976966 -0.2554841 -0.27694812
-0.19967228 -0.25652203 -0.27643362
-0.19853584 -0.2558803 -0.27410892
-0.1976061 -0.25555795 -0.27214858
-0.19750993 -0.256583 -0.27164045
-0.19648066 -0.25607756 -0.2695131
-0.1956588 -0.2558992 -0.2677495
-0.19473414 -0.25553897 -0.26581126
-0.19463956 -0.2565469 -0.2653116
-0.193613 -0.2559965 -0.2632032
-0.19279785 -0.2557864 -0.26146355
-0.19270435 -0.25678295 -0.26096955
-0.19209413 -0.25690317 -0.25958723
-0.19127966 -0.25666702 -0.2578566
-0.19118696 -0.25765502 -0.25736684
-0.19047864 -0.25758404 -0.25582293
-0.18976933 -0.25750148 -0.25428024
-0.1891621 -0.25758624 -0.2529147
-0.18907055 -0.25856212 -0.25243095
-0.18856709 -0.25881624 -0.25124574
-0.18817015 -0.25925124 -0.2502436
-0.18807906 -0.26022214 -0.2497623
-0.18768151 -0.2606486 -0.24876125
-0.18738753 -0.26125494 -0.24793704
-0.18729678 -0.2622223 -0.2474575
-0.18720584 -0.26318932 -0.24697764
-0.18691419 -0.26379332 -0.24615933
-0.18682732 -0.26476607 -0.24568677
-0.18673669 -0.26573205 -0.2452079
-0.18675826 -0.2669038 -0.24491748
-0.18708941 -0.2686475 -0.24514571
-0.18699843 -0.26961723 -0.244665
-0.18702938 -0.27081355 -0.2443882
-0.1873573 -0.27256614 -0.24460676
-0.18726596 -0.27353963 -0.24412417
-0.18738551 -0.27491024 -0.24399275
-0.18759698 -0.27645808 -0.24401315
-0.18791471 -0.27821285 -0.24420857
-0.18782277 -0.27919286 -0.24372277
-0.18793458 -0.2805632 -0.24357434
-0.18834937 -0.28252 -0.24392584
-0.18825696 -0.283505 -0.24343756
-0.18837222 -0.28489304 -0.24329162
-0.18858448 -0.28647366 -0.24330436
-0.18849173 -0.28746226 -0.24281429
-0.1885968 -0.28883973 -0.24264888
-0.18860158 -0.29002255 -0.2423182
-0.18870166 -0.29139596 -0.24214296
-0.18860859 -0.292388 -0.24165118
-0.18800958 -0.29236844 -0.24033391
-0.18780471 -0.29313177 -0.23966123
-0.18771206 -0.29411945 -0.23917161
-0.18720517 -0.29426846 -0.23800918
-0.18680057 -0.2946184 -0.23701468
-0.18670839 -0.29560095 -0.2365276
-0.1862166 -0.2957642 -0.23539436
-0.18571873 -0.29590815 -0.23425326
-0.1852222 -0.29604805 -0.23311631
-0.18513082 -0.29702196 -0.23263352
-0.1846422 -0.29716796 -0.23151225
-0.1842505 -0.29751003 -0.23054849
-0.18415959 -0.298479 -0.23006815
-0.18386456 -0.29901728 -0.22926126
-0.1833768 -0.29914385 -0.22814752
-0.18328631 -0.3001085 -0.22766931
-0.18309192 -0.30085135 -0.22702572
-0.18289463 -0.30158615 -0.22637796
-0.18260473 -0.3021198 -0.22558378
-0.1825145 -0.30308148 -0.22510704
-0.18232456 -0.30382684 -0.2244725
-0.1822277 -0.30477324 -0.22398551
-0.18213753 -0.3057342 -0.22350915
-0.18204401 -0.3066877 -0.22302745
-0.18195064 -0.30764157 -0.22254604
-0.181854 -0.3085881 -0.22205952
-0.18176384 -0.30954897 -0.22158319
-0.18176952 -0.31072354 -0.2212568
-0.1816792 -0.31168488 -0.22078
-0.18158899 -0.31264642 -0.22030333
-0.1818812 -0.31447098 -0.22042228
-0.18188268 -0.31564355 -0.2200872
-0.18179215 -0.31660855 -0.21960883
-0.1816981 -0.31756547 -0.21912503
-0.18208931 -0.31963447 -0.21939205
-0.18246427 -0.32167456 -0.21963157
-0.18237309 -0.32264638 -0.21914981
-0.18300156 -0.32528648 -0.21977606
-0.18366696 -0.32802522 -0.2204554
-0.18357478 -0.32900774 -0.21996833
-0.18410353 -0.33144623 -0.22043256
-0.18484953 -0.33440706 -0.22122584
-0.18475637 -0.33540016 -0.22073354
-0.18530485 -0.33791503 -0.22121932
-0.18605411 -0.34091914 -0.22200727
-0.18670484 -0.3437029 -0.22264126
-0.18661013 -0.34471232 -0.22214088
-0.18730205 -0.3476152 -0.22283143
-0.1879202 -0.35035387 -0.22340639
-0.18782446 -0.35137424 -0.22290057
-0.18848556 -0.35423678 -0.22353473
-0.18878096 -0.35621947 -0.22361508
-0.18868443 -0.35724825 -0.22310509
-0.18928973 -0.3600042 -0.22364672
-0.18993312 -0.36286688 -0.22424167
-0.19086589 -0.3664605 -0.22526489
-0.19076766 -0.3675074 -0.22474591
-0.1918552 -0.37151548 -0.22599132
-0.1918883 -0.3729023 -0.22566432
-0.19178918 -0.37395892 -0.22514054
-0.19215205 -0.37618187 -0.22530057
-1.0263835 -0.37934422 -2.051478
-1.0258213 -0.38533658 -2.0485075
-0.9376046 -0.37437624 -1.8581924
-0.91312325 -0.3699487 -1.8057793
-0.89533377 -0.36801922 -1.7673196
-0.89484495 -0.37322965 -1.7647367
-0.8764242 -0.3706956 -1.7250679
-0.86230266 -0.3698159 -1.6943489
-0.8618321 -0.3748317 -1.6918625
-0.84979427 -0.37462917 -1.6655178
-0.8395709 -0.37510806 -1.6429552
-0.8293115 -0.37544438 -1.6203548
-0.8288589 -0.38026816 -1.6179636
-0.81907547 -0.38064176 -1.5963963
-0.8083989 -0.38046315 -1.5730305
-0.8079577 -0.3851659 -1.5706992
-0.7977724 -0.38503227 -1.5483977
-0.7875946 -0.38477606 -1.5261482
-0.78716475 -0.38935807 -1.5238768
-0.7775348 -0.38919452 -1.5028021
-0.7683807 -0.38915977 -1.4827338
-0.7610038 -0.3899511 -1.4663241
-0.7605884 -0.3943786 -1.4641293
-0.75419223 -0.3955651 -1.4497559
-0.7500941 -0.39793375 -1.4400804
-0.74968433 -0.4023011 -1.4379153
-0.7461425 -0.4049097 -1.4293905
-0.7448664 -0.40876427 -1.4254737
-0.744459 -0.41310668 -1.423321
-0.7433456 -0.41703883 -1.4197392
-0.74738586 -0.4239911 -1.4265851
-0.75538427 -0.4333549 -1.4414138
-0.7549697 -0.43777326 -1.4392235
-0.76278347 -0.44719145 -1.4536312
-0.80855507 -0.4800344 -1.544503
-0.80810857 -0.48479337 -1.5421438
-0.81994843 -0.4972622 -1.564498
-0.82096225 -0.50302887 -1.5650498
-0.8205077 -0.5078741 -1.5626478
-0.8197823 -0.51254386 -1.5597029
-0.8198722 -0.5177434 -1.5583924
-0.81734484 -0.5212207 -1.5518408
-0.8168914 -0.5260545 -1.5494444
-0.8160381 -0.53061897 -1.5462497
-0.81614983 -0.535835 -1.5449824
-0.81569624 -0.54066986 -1.5425856
-0.81522244 -0.54549074 -1.5401485
-0.8095369 -0.546658 -1.5273395
-0.8090864 -0.5514597 -1.5249592
-0.80721015 -0.55524296 -1.519747
-0.81884634 -0.568752 -1.5413529
-0.6234022 -0.4316814 -1.1524122
-0.623061 -0.4353176 -1.1506096
-0.38597223 -0.26341286 -0.6804263
-0.38011482 -0.2613177 -0.6681863
-0.37991765 -0.2634194 -0.6671445
-0.37684047 -0.26332706 -0.6604217
-0.3727766 -0.26243716 -0.6517662
-0.37258342 -0.26449603 -0.6507455
-0.36990595 -0.26461163 -0.6448393
-0.3663315 -0.26398548 -0.6371806
-0.3629986 -0.26350546 -0.63000965
-0.36281082 -0.26550707 -0.6290174
-0.3594922 -0.264974 -0.6218929
-0.35638487 -0.26457053 -0.61519444
-0.35620072 -0.2665336 -0.6142213
-0.352891 -0.2659019 -0.60714495
-0.34980083 -0.26541096 -0.6005094
-0.34962028 -0.2673355 -0.5995553
-0.34651935 -0.2667753 -0.59291625
-0.3432147 -0.266 -0.5858927
-0.3401364 -0.26537722 -0.57932144
-0.33996123 -0.26724458 -0.5783958
-0.3368884 -0.26656628 -0.5718525
-0.3338188 -0.26585066 -0.5653272
-0.33364707 -0.26768085 -0.56442
-0.33058256 -0.2669094 -0.55792195
-0.32773417 -0.26629353 -0.551853
-0.32756582 -0.26808798 -0.5509634
-0.32472268 -0.26742086 -0.5449207
-0.3216803 -0.26653165 -0.53850543
-0.31863162 -0.26559627 -0.5320897
-0.31846833 -0.26733643 -0.53122705
-0.31564614 -0.26655522 -0.5252635
-0.31282768 -0.26574016 -0.51931775
-0.3126676 -0.26744607 -0.5184721
-0.30963266 -0.2663651 -0.5121287
-0.30683222 -0.26547262 -0.5062451
-0.30667552 -0.26714292 -0.5054171
-0.30386966 -0.26618907 -0.49953932
-0.301278 -0.2654114 -0.49408028
-0.29826957 -0.26418054 -0.48783854
-0.29811767 -0.2657994 -0.48703602
-0.2955439 -0.26495066 -0.48163688
-0.2929734 -0.26407078 -0.47625384
-0.29282445 -0.26565823 -0.4754669
-0.29047778 -0.26495948 -0.4705223
-0.28791514 -0.2640032 -0.4651787
-0.28776902 -0.2655607 -0.4644066
-0.28521985 -0.26456693 -0.45910352
-0.28287363 -0.26375565 -0.45419255
-0.2805401 -0.26292652 -0.4493147
-0.28039813 -0.26443976 -0.44856456
-0.2780685 -0.26356763 -0.44370764
-0.27575037 -0.26267663 -0.4388814
-0.27561107 -0.26416138 -0.43814537
-0.27328825 -0.26321808 -0.43332407
-0.2709645 -0.26224223 -0.42851016
-0.26886535 -0.26148772 -0.42412466
-0.26872993 -0.26293105 -0.42340916
-0.2665254 -0.26201364 -0.41883975
-0.26421452 -0.26094416 -0.41408128
-0.26408172 -0.26235968 -0.41337955
-0.2620984 -0.2616235 -0.4092428
-0.26001108 -0.26073873 -0.40492103
-0.2598806 -0.26212925 -0.4042317
-0.25779682 -0.26120582 -0.39992896
-0.25582567 -0.2603881 -0.39584258
-0.25385484 -0.2595438 -0.3917646
-0.25372788 -0.26089722 -0.3910937
-0.2516538 -0.259887 -0.3868373
-0.24969013 -0.25898305 -0.38279235
-0.2495655 -0.26031148 -0.3821338
-0.24771015 -0.25950083 -0.3782994
-0.24585994 -0.258671 -0.37448177
-0.24573743 -0.2599766 -0.37383455
-0.24378246 -0.2589767 -0.36983645
-0.24204393 -0.25822356 -0.36624154
-0.24030744 -0.2574491 -0.3626573
-0.24018809 -0.25872114 -0.36202672
-0.2385622 -0.25805306 -0.35865423
-0.23693702 -0.25736353 -0.35528955
-0.23681955 -0.2586156 -0.35466886
-0.23509324 -0.25775984 -0.35113052
-0.23358017 -0.25716102 -0.34798542
-0.23346458 -0.25839314 -0.34737465
-0.23184809 -0.25762513 -0.34405172
-0.23023441 -0.25683847 -0.34074044
-0.22883484 -0.25631773 -0.33782157
-0.22872192 -0.25752127 -0.33722496
-0.22721969 -0.2568317 -0.33412993
-0.22582427 -0.25626755 -0.33123282
-0.22571303 -0.25745323 -0.33064505
-0.22421503 -0.25671792 -0.32757258
-0.22282378 -0.25611034 -0.32469723
-0.22271422 -0.25727814 -0.3241183
-0.22143275 -0.256796 -0.32144734
-0.22015277 -0.25629818 -0.31878418
-0.21887349 -0.2557835 -0.31612745
-0.21876612 -0.2569278 -0.3155602
-0.21748984 -0.25639072 -0.31291655
-0.21621503 -0.25583792 -0.31028068
-0.21610914 -0.2569665 -0.3097212
-0.2149426 -0.25654516 -0.3072847
-0.21367142 -0.2559538 -0.30466798
-0.21356693 -0.25706738 -0.30411592
-0.21240303 -0.25660846 -0.30169612
-0.21124125 -0.25613642 -0.29928476
-0.2100808 -0.2556501 -0.29688045
-0.20997834 -0.25674224 -0.29633904
-0.20871513 -0.2560758 -0.2937616
-0.2076628 -0.2557125 -0.29155877
-0.20756167 -0.25679037 -0.29102442
-0.20651197 -0.25640905 -0.2888326
-0.2054625 -0.2560134 -0.2866454
-0.20536257 -0.2570784 -0.28611746
-0.20421164 -0.25650218 -0.2837601
-0.20316513 -0.25607345 -0.281589
-0.2020169 -0.25546953 -0.27924562
-0.20191893 -0.2565139 -0.27872792
-0.20087656 -0.25605404 -0.27657497
-0.19973187 -0.25541553 -0.27424932
-0.19963516 -0.25644633 -0.27373832
-0.19869933 -0.2561208 -0.27178004
-0.1976626 -0.25561824 -0.26965186
-0.19756705 -0.25663692 -0.2691469
-0.19673984 -0.2564558 -0.26738507
-0.19580908 -0.25609243 -0.2654489
-0.19477504 -0.2555449 -0.2633396
-0.19468108 -0.25654644 -0.26284313
-0.19386064 -0.2563336 -0.2611053
-0.19324629 -0.25645542 -0.25972247
-0.19315313 -0.2574484 -0.25923023
-0.19233334 -0.2572095 -0.25750142
-0.19162007 -0.25714046 -0.25595692
-0.19152777 -0.2581242 -0.25546926
-0.1908139 -0.2580393 -0.2539281
-0.19020288 -0.2581221 -0.25256386
-0.18969609 -0.2583775 -0.25137827
-0.1896048 -0.25935054 -0.25089592
-0.1892056 -0.25978437 -0.24989453
-0.18880558 -0.26021177 -0.24889322
-0.18871468 -0.26118055 -0.24841297
-0.18841921 -0.2617861 -0.24758926
-0.18832825 -0.26275313 -0.24710941
-0.18803501 -0.26335776 -0.2462909
-0.18794438 -0.2643237 -0.24581204
-0.18785752 -0.26529646 -0.24533948
-0.18788001 -0.26646787 -0.24504916
-0.1877893 -0.26743466 -0.24456991
-0.18812358 -0.26917997 -0.24479708
-0.18815555 -0.2703759 -0.2445204
-0.18806449 -0.2713465 -0.24403925
-0.18839553 -0.27310067 -0.24425678
-0.1885168 -0.2744706 -0.24412555
-0.18873072 -0.27601752 -0.24414624
-0.18863904 -0.27699462 -0.24366187
-0.18895984 -0.27875096 -0.24385625
-0.18907331 -0.2801207 -0.243708
-0.18898124 -0.28110212 -0.24322149
-0.18939984 -0.28306085 -0.24357171
-0.18951678 -0.28444827 -0.24342597
-0.18942425 -0.28543472 -0.24293697
-0.1896388 -0.28701648 -0.24294893
-0.18974547 -0.28839335 -0.24278373
-0.18975107 -0.28957585 -0.24245314
-0.18965812 -0.29056656 -0.24196203
-0.18975966 -0.2919407 -0.2417863
-0.18915649 -0.29192272 -0.24046855
-0.18906376 -0.2929112 -0.23997854
-0.18885805 -0.29367408 -0.23930615
-0.18834776 -0.29382443 -0.23814331
-0.18825537 -0.29480916 -0.23765516
-0.18784842 -0.2951579 -0.23666145
-0.18735331 -0.29532245 -0.23552781
-0.1868521 -0.29546773 -0.23438631
-0.18676046 -0.2964445 -0.2339021
-0.18626086 -0.29658282 -0.23276618
-0.18576896 -0.2967301 -0.23164451
-0.18567786 -0.29770118 -0.23116313
-0.18528385 -0.2980421 -0.23020014
-0.18498714 -0.29858103 -0.22939304
-0.18489636 -0.2995485 -0.22891344
-0.1844056 -0.29967353 -0.22780071
-0.18421035 -0.30041674 -0.227157
-0.18401216 -0.30115184 -0.22650915
-0.1839218 -0.302115 -0.2260317
-0.18363039 -0.30264786 -0.22523803
-0.1834396 -0.3033935 -0.22460338
-0.18334943 -0.30435452 -0.224127
-0.18325254 -0.30530092 -0.22364002
-0.18315898 -0.30625442 -0.22315834
-0.18306883 -0.30721536 -0.22268198
-0.18297543 -0.30816922 -0.22220057
-0.18287873 -0.3091157 -0.22171406
-0.1828852 -0.31028998 -0.22138777
-0.18279499 -0.31125152 -0.22091112
-0.18270469 -0.31221285 -0.22043431
-0.1830001 -0.3140362 -0.22055362
-0.18290962 -0.3150005 -0.22007559
-0.1829118 -0.31617343 -0.21974027
-0.18281773 -0.3171304 -0.21925646
-0.1827272 -0.31809533 -0.21877812
-0.18312213 -0.32016623 -0.2190439
-0.18350068 -0.3222082 -0.21928218
-0.1841352 -0.32484594 -0.21990915
-0.18404354 -0.32582295 -0.21942481
-0.1847148 -0.32856473 -0.22010216
-0.18524879 -0.33100116 -0.220567
-0.1851562 -0.3319882 -0.22007771
-0.1859087 -0.33495238 -0.2208688
-0.18646263 -0.3374651 -0.22135523
-0.186369 -0.33846292 -0.22086059
-0.1871248 -0.34147042 -0.22164632
-0.18778133 -0.34425718 -0.22227837
-0.18847993 -0.34715748 -0.2229697
-0.1883847 -0.3481726 -0.22246647
-0.18900837 -0.35091415 -0.22303955
-0.1896759 -0.3537742 -0.22367448
-0.18957965 -0.35480008 -0.22316591
-0.1898781 -0.35678437 -0.22324522
-0.19048937 -0.359538 -0.22378755
-0.19039236 -0.3605719 -0.223275
-0.19104154 -0.3634376 -0.22386801
-0.19198239 -0.36703536 -0.22488852
-0.19308005 -0.3710395 -0.22613512
-0.192981 -0.3720951 -0.22561182
-0.19301513 -0.3734825 -0.22528446
-0.19338197 -0.37570393 -0.22544494
-0.19328251 -0.37676388 -0.22491948
-1.0319939 -0.38234168 -2.0477087
-0.9740579 -0.37812153 -1.9227277
-0.94657385 -0.372966 -1.8643571
-0.92093945 -0.36822176 -1.8098961
-0.9204397 -0.37354863 -1.8072555
-0.9017203 -0.37122858 -1.7671522
-0.88242495 -0.36843145 -1.7259332
-0.88194644 -0.37353194 -1.7234048
-0.86733663 -0.37243167 -1.6918987
-0.8552187 -0.37226048 -1.6655502
-0.85475504 -0.37720308 -1.6631001
-0.8444401 -0.37763435 -1.6405039
-0.83500266 -0.37834695 -1.6197374
-0.8251468 -0.37874758 -1.5981503
-0.82469934 -0.38351697 -1.595786
-0.81433207 -0.38348916 -1.5732095
-0.8040768 -0.38338873 -1.5508982
-0.8036407 -0.38803682 -1.548594
-0.79295063 -0.3875281 -1.5254544
-0.7832602 -0.38739622 -1.5043828
-0.7828354 -0.39192405 -1.5021383
-0.7740736 -0.3920977 -1.4830004
-0.76710933 -0.39311382 -1.4675331
-0.76151466 -0.39477816 -1.4548606
-0.7611015 -0.39918226 -1.4526774
-0.7571124 -0.40162593 -1.4432755
-0.7534665 -0.40421346 -1.4345793
-0.75305724 -0.40857545 -1.4324168
-0.75219536 -0.41268036 -1.4293432
-0.7515718 -0.41691628 -1.4267508
-0.75116295 -0.42127413 -1.4245905
-0.75645536 -0.42898062 -1.4338746
-0.7654194 -0.43894234 -1.4504999
-0.7956548 -0.4617997 -1.5097067
-0.79521924 -0.46644148 -1.5074056
-0.8302199 -0.4928268 -1.5759654
-0.82981604 -0.49772137 -1.5736598
-0.8293598 -0.50258386 -1.5712492
-0.83045065 -0.5084261 -1.5719235
-0.82842934 -0.51229715 -1.5663923
-0.8279731 -0.5171595 -1.5639819
-0.8290698 -0.5230362 -1.5646589
-0.8279526 -0.52747256 -1.5609326
-0.8272172 -0.5321548 -1.5579665
-0.82676065 -0.5370209 -1.5555542
-0.82621014 -0.5418232 -1.5529557
-0.82490784 -0.54610825 -1.5488703
-0.8244518 -0.5509685 -1.546461
-0.8189451 -0.55229455 -1.5340785
-0.8158504 -0.5552571 -1.5264738
-0.8153989 -0.56006914 -1.5240883
-0.823448 -0.571 -1.5384382
-0.7930105 -0.5540837 -1.4770601
-0.38839948 -0.26241022 -0.6806134
-0.38819897 -0.26454744 -0.6795539
-0.3832328 -0.2631262 -0.66914946
-0.38013503 -0.26304847 -0.66242373
-0.37993905 -0.26513743 -0.6613882
-0.37474734 -0.26339507 -0.65058595
-0.37226555 -0.26368183 -0.64509594
-0.36868587 -0.26308075 -0.637473
-0.3684962 -0.2651024 -0.6364708
-0.36514136 -0.26461092 -0.6293056
-0.36200887 -0.26425445 -0.6225855
-0.3618228 -0.2662375 -0.6216024
-0.3587037 -0.26583186 -0.6149258
-0.35536292 -0.2652042 -0.60783094
-0.3551805 -0.26714867 -0.606867
