ply
format ascii 1.0
element vertex 1339
property float x
property float y
property float z
end_header
-0.048373543 -0.22933885 -0.18814968
-0.04817559 -0.22898884 -0.18667501
-0.04797822 -0.22863239 -0.18520656
-0.047808744 -0.22846349 -0.18391067
-0.047780715 -0.22929476 -0.18347736
-0.047583736 -0.22891562 -0.1820178
-0.047387358 -0.2285301 -0.18056455
-0.047359616 -0.22935289 -0.18013567
-0.047218908 -0.22935571 -0.17902333
-0.047022887 -0.22894809 -0.17757855
-0.046995386 -0.22976375 -0.17715338
-0.046827804 -0.22954935 -0.17588407
-0.046632767 -0.22912332 -0.17445181
-0.04643772 -0.2286866 -0.17302218
-0.046410628 -0.22949022 -0.1726033
-0.04624393 -0.22924949 -0.17134763
-0.04607747 -0.22900173 -0.1700957
-0.046050616 -0.22979824 -0.1696805
-0.04588452 -0.22953986 -0.16843416
-0.045691144 -0.22906496 -0.16702743
-0.04566455 -0.22985366 -0.1666163
-0.0454988 -0.22957471 -0.16537794
-0.045333587 -0.22929092 -0.16414502
-0.045168936 -0.22900255 -0.16291772
-0.045142703 -0.22978058 -0.16251215
-0.045005452 -0.22969255 -0.16145024
-0.04481341 -0.22916806 -0.1600667
-0.044787414 -0.229939 -0.15966482
-0.044623405 -0.2296198 -0.15845048
-0.044486854 -0.22950934 -0.15739979
-0.044296145 -0.22896034 -0.15603302
-0.04427051 -0.22972065 -0.1556367
-0.044107363 -0.22937681 -0.15443543
-0.043944 -0.22902219 -0.1532352
-0.043918606 -0.22977538 -0.1528426
-0.043756045 -0.22941369 -0.15165049
-0.04356632 -0.22882119 -0.15030259
-0.043541186 -0.2295666 -0.14991404
-0.04335189 -0.22896136 -0.14857282
-0.043162916 -0.22834787 -0.1472362
-0.043000676 -0.22794522 -0.14605705
-0.04297595 -0.22867852 -0.14567481
-0.04278866 -0.22805274 -0.14435466
-0.042627417 -0.22763467 -0.14318728
-0.042602956 -0.22836018 -0.14280911
-0.042468924 -0.22815873 -0.1418016
-0.04232328 -0.22785117 -0.14072931
-0.042299025 -0.22857065 -0.14035428
-0.042137872 -0.22811814 -0.13919647
-0.041991558 -0.22778392 -0.13812573
-0.04181653 -0.22719361 -0.13689339
-0.04179263 -0.22790237 -0.13652395
-0.0416864 -0.22789505 -0.13568652
-0.04151634 -0.22732486 -0.13448836
-0.04149265 -0.22802763 -0.13412203
-0.041414697 -0.2282529 -0.13344873
-0.041296788 -0.22812156 -0.13255067
-0.041273225 -0.2288204 -0.13218641
-0.04110966 -0.22827293 -0.1310337
-0.04086098 -0.22695525 -0.12940489
-0.0407478 -0.22683762 -0.12854071
-0.040724643 -0.22752443 -0.12818271
-0.040348276 -0.22501835 -0.12584804
-0.040216397 -0.22470641 -0.12488567
-0.040193655 -0.22538097 -0.124534056
-0.039957058 -0.22410011 -0.122991286
-0.20853433 -0.3050092 -1.3981618
-0.20839764 -0.30906352 -1.3960484
-0.20633283 -0.3099364 -1.3798722
-0.20410757 -0.3104557 -1.362549
-0.20397371 -0.31442577 -1.3604795
-0.20204784 -0.31531987 -1.345371
-0.20022583 -0.31631488 -1.3310382
-0.20009445 -0.3202118 -1.3290069
-0.19818442 -0.32093692 -1.3140647
-0.19601302 -0.3211107 -1.2972476
-0.19368827 -0.32091293 -1.279343
-0.19356117 -0.32468316 -1.2773777
-0.190859 -0.32363093 -1.2567806
-0.18814565 -0.3224419 -1.236133
-0.18802221 -0.32610315 -1.2342246
-0.18505639 -0.32424957 -1.2118001
-0.1823621 -0.32280082 -1.1913674
-0.18224253 -0.32634747 -1.1895187
-0.17916256 -0.3239498 -1.1663544
-0.17648639 -0.3222381 -1.1461304
-0.17382912 -0.3204491 -1.1260725
-0.17371531 -0.32382482 -1.1243129
-0.17117569 -0.32210943 -1.1051441
-0.16852532 -0.32004863 -1.0852103
-0.16841507 -0.32331878 -1.0835057
-0.16588174 -0.32133776 -1.064455
-0.16353583 -0.31965646 -1.046774
-0.16342893 -0.3228273 -1.0451212
-0.16143195 -0.32177225 -1.0299718
-0.15949282 -0.320761 -1.0152576
-0.15752763 -0.31960592 -1.0003798
-0.15742473 -0.32265747 -0.9987892
-0.15550087 -0.32146996 -0.9842391
-0.1539758 -0.3211358 -0.9725466
-0.15387525 -0.32411787 -0.97099215
-0.15181908 -0.32241163 -0.9555553
-0.14292677 -0.3040672 -0.8916563
-0.14283401 -0.30681852 -0.89022213
-0.13631006 -0.29370362 -0.8432522
-0.10819202 -0.22651106 -0.6435955
-0.10897764 -0.2306662 -0.6485798
-0.10890924 -0.23269452 -0.6475225
-0.1030109 -0.21979517 -0.6053284
-0.08045825 -0.16358839 -0.44579312
-0.080410466 -0.16500573 -0.44505432
-0.0755872 -0.15385905 -0.410707
-0.072738096 -0.14772788 -0.39029986
-0.07269584 -0.14898135 -0.38964647
-0.071592204 -0.14736737 -0.3815431
-0.07092479 -0.14689198 -0.37651196
-0.07037018 -0.14669706 -0.37227902
-0.070329525 -0.14790286 -0.3716505
-0.069814645 -0.14778247 -0.36770496
-0.069079116 -0.14701723 -0.36222333
-0.06903932 -0.1481976 -0.36160806
-0.06843123 -0.14774814 -0.35702842
-0.06781962 -0.14726132 -0.35243133
-0.06778065 -0.14841685 -0.351829
-0.06722473 -0.14805265 -0.34763002
-0.06673566 -0.1478618 -0.3439023
-0.06634193 -0.14793411 -0.3408423
-0.066303946 -0.14906077 -0.34025502
-0.066227965 -0.15007204 -0.33940428
-0.06602811 -0.15070248 -0.33769625
-0.06599028 -0.15182476 -0.33711126
-0.066048175 -0.15324461 -0.3371881
-0.066136904 -0.15476573 -0.3374767
-0.066098906 -0.1558929 -0.33688918
-0.06622285 -0.15753523 -0.3374181
-0.06637891 -0.15928845 -0.33816624
-0.06650357 -0.16094968 -0.33869573
-0.066465184 -0.16208825 -0.33810225
-0.06668581 -0.16407613 -0.3392879
-0.06683949 -0.16585553 -0.3400108
-0.06680076 -0.16700405 -0.3394121
-0.06695596 -0.1688027 -0.34014168
-0.06710983 -0.17060639 -0.34085968
-0.06707081 -0.17176346 -0.34025654
-0.06716017 -0.17336039 -0.3405302
-0.06728129 -0.1750733 -0.34101897
-0.0673702 -0.17668211 -0.34128597
-0.067330875 -0.17784841 -0.34067804
-0.067419425 -0.17946558 -0.34094027
-0.06750709 -0.1810859 -0.34119466
-0.06746757 -0.18225786 -0.34058377
-0.06758681 -0.18400136 -0.3410499
-0.06767466 -0.18563902 -0.3413013
-0.067634925 -0.18681736 -0.34068707
-0.0677232 -0.18846616 -0.34093887
-0.067841664 -0.19023311 -0.341393
-0.067928135 -0.19188881 -0.341629
-0.067888096 -0.19307636 -0.34100997
-0.06797497 -0.19474313 -0.34124625
-0.068093345 -0.19653603 -0.34169284
-0.06805309 -0.19772997 -0.3410705
-0.06820267 -0.19965515 -0.34172374
-0.068287894 -0.20134042 -0.34194243
-0.06837417 -0.2030362 -0.34216657
-0.06833359 -0.20424007 -0.34153906
-0.068418525 -0.2059402 -0.34175166
-0.06859744 -0.20802072 -0.342591
-0.06855659 -0.20923236 -0.3419594
-0.06876449 -0.21144645 -0.34298763
-0.069004074 -0.21380186 -0.3442238
-0.06896281 -0.21502544 -0.34358597
-0.06929759 -0.21779339 -0.34544978
-0.06935072 -0.21941674 -0.3454367
-0.06974431 -0.22246085 -0.3476828
-0.069702365 -0.2237049 -0.34703434
-0.06997628 -0.22627883 -0.3484786
-0.0700232 -0.22790758 -0.34841624
-0.06998094 -0.22916082 -0.34776297
-0.06991506 -0.23031273 -0.3469536
-0.06943803 -0.22968966 -0.34343162
-0.06939613 -0.23093249 -0.34278378
-0.069139235 -0.23123656 -0.34072015
-0.068758264 -0.23098437 -0.33784333
-0.068189 -0.22988243 -0.33373377
-0.06814793 -0.2311006 -0.3330988
-0.06773499 -0.23065604 -0.33002526
-0.06722739 -0.2297662 -0.32633665
-0.06718697 -0.23096521 -0.32571164
-0.06677547 -0.23047572 -0.32266095
-0.06630354 -0.22969007 -0.31922075
-0.06626373 -0.2308707 -0.31860533
-0.065851696 -0.23032792 -0.31556427
-0.06541112 -0.22963263 -0.31234273
-0.06497111 -0.22891858 -0.3091303
-0.06493221 -0.2300722 -0.30852896
-0.0645531 -0.22961453 -0.30572006
-0.06414536 -0.2290023 -0.3027303
-0.06410701 -0.23013958 -0.30213746
-0.06369934 -0.22949813 -0.29915604
-0.063292965 -0.22884308 -0.29618806
-0.0632552 -0.22996335 -0.2956041
-0.062849574 -0.22928223 -0.29264873
-0.0625039 -0.22887649 -0.29008457
-0.062099338 -0.2281625 -0.28714597
-0.062062383 -0.22925863 -0.2865746
-0.06168922 -0.22867204 -0.28384537
-0.061316 -0.22806685 -0.28112048
-0.061279573 -0.22914737 -0.28055725
-0.06090715 -0.22851881 -0.2778446
-0.060565777 -0.22803071 -0.27533522
-0.060529843 -0.22909632 -0.27477974
-0.060158752 -0.22842953 -0.27208734
-0.05978859 -0.22774929 -0.26940563
-0.059448954 -0.22721012 -0.26692295
-0.059413794 -0.22825299 -0.26637933
-0.059104886 -0.22785094 -0.26409823
-0.05882648 -0.2275956 -0.2620144
-0.058791723 -0.22862637 -0.26147708
-0.05845435 -0.22803473 -0.25902554
-0.05814771 -0.22759198 -0.25677258
-0.058113407 -0.22860926 -0.2562423
-0.057807118 -0.2281457 -0.25399742
-0.057531167 -0.22783305 -0.25194752
-0.05722573 -0.22734474 -0.24971572
-0.057192054 -0.22834359 -0.24919505
-0.05688727 -0.22783613 -0.24697328
-0.056583196 -0.22731745 -0.2447599
-0.05654995 -0.22830352 -0.2442459
-0.05627603 -0.22793216 -0.24222702
-0.055972766 -0.22738084 -0.24002837
-0.055939924 -0.22835484 -0.23952067
-0.055666987 -0.22795434 -0.237517
-0.055364788 -0.22737189 -0.23533472
-0.055063304 -0.22677831 -0.2331609
-0.055031087 -0.22773387 -0.2326628
-0.054759577 -0.22729237 -0.23068084
-0.054488733 -0.22684117 -0.22870654
-0.054456897 -0.22778536 -0.22821438
-0.05418663 -0.2273171 -0.22624896
-0.0539462 -0.22701289 -0.22447127
-0.053914726 -0.2279464 -0.22398466
-0.05364536 -0.2274503 -0.2220335
-0.053405765 -0.22712028 -0.22026895
-0.05313742 -0.22660382 -0.21833096
-0.053106498 -0.22752103 -0.21785286
-0.05286805 -0.2271672 -0.21610342
-0.052629948 -0.22680344 -0.21435916
-0.052599356 -0.22771071 -0.21388625
-0.052391317 -0.22751574 -0.21233025
-0.052154034 -0.22712788 -0.21059863
-0.051946618 -0.22691523 -0.20905197
-0.051916484 -0.227809 -0.20858608
-0.05170923 -0.22758192 -0.2070445
-0.051531732 -0.22753364 -0.20568609
-0.05150186 -0.22841959 -0.20522429
-0.05126617 -0.22798496 -0.2035172
-0.051031083 -0.22754215 -0.20181689
-0.05100155 -0.22841816 -0.20136026
-0.05079603 -0.2281495 -0.19984291
-0.050590813 -0.22787242 -0.19833009
-0.05038588 -0.22758685 -0.19682173
-0.05035678 -0.22845006 -0.19637176
-0.05018124 -0.2283435 -0.19504371
-0.0499773 -0.22803928 -0.19354782
-0.049948458 -0.22889468 -0.19310193
-0.04974466 -0.22857577 -0.19161096
-0.04954113 -0.22824828 -0.19012439
-0.04951258 -0.22909518 -0.18968295
-0.049309812 -0.22875708 -0.18820493
-0.049135763 -0.22860472 -0.1869003
-0.048933223 -0.22824815 -0.18542893
-0.048905075 -0.22908299 -0.18499376
-0.04870296 -0.22871357 -0.18352899
-0.0485301 -0.22853705 -0.18223989
-0.048502218 -0.22936408 -0.18180878
-0.048300803 -0.22897409 -0.18035477
-0.048128564 -0.22877909 -0.17907527
-0.048100945 -0.22959831 -0.17864823
-0.047928732 -0.2293903 -0.17737234
-0.04772826 -0.22897185 -0.17593306
-0.0475284 -0.22854722 -0.17450011
-0.047501188 -0.22935435 -0.17407939
-0.047330186 -0.22912237 -0.17281906
-0.047159106 -0.22888099 -0.1715606
-0.04713213 -0.22968102 -0.17114358
-0.04693367 -0.22922595 -0.16972938
-0.046791576 -0.2291746 -0.16864526
-0.046764843 -0.22996753 -0.16823193
-0.046566747 -0.22949035 -0.1668263
-0.04639723 -0.22921528 -0.16558869
-0.046227954 -0.2289331 -0.16435485
-0.0462016 -0.2297147 -0.16394743
-0.046032693 -0.22942194 -0.16271913
-0.04589216 -0.229335 -0.16165633
-0.045866024 -0.2301102 -0.16125225
-0.0456696 -0.22958608 -0.15987182
-0.045501538 -0.22926854 -0.15865652
-0.045475665 -0.23003596 -0.1582565
-0.04530838 -0.22971101 -0.15704915
-0.04514052 -0.22937267 -0.15584087
-0.044973318 -0.22903049 -0.15463866
-0.044947803 -0.22978725 -0.1542442
-0.04475271 -0.22921257 -0.15288718
-0.044613842 -0.22907043 -0.15185168
-0.04458857 -0.22982007 -0.15146092
-0.044394128 -0.2292254 -0.15011416
-0.044199985 -0.22862227 -0.14877191
-0.044174995 -0.22936341 -0.14838558
-0.043981276 -0.22874747 -0.14704995
-0.04381507 -0.22834294 -0.14587173
-0.043622937 -0.22771902 -0.14455043
-0.043598358 -0.22844811 -0.14417037
-0.043433834 -0.22803368 -0.1430077
-0.043310683 -0.22794956 -0.14207843
-0.043286305 -0.22867261 -0.14170152
-0.0431491 -0.22846274 -0.14069654
-0.04297101 -0.22790612 -0.13946615
-0.04294686 -0.22862239 -0.13909279
-0.042795416 -0.22827367 -0.13801397
-0.04261762 -0.22769532 -0.13679157
-0.042486403 -0.22749965 -0.13582908
-0.042462587 -0.22820604 -0.13546087
-0.04230813 -0.22780228 -0.13437314
-0.042231146 -0.22805087 -0.1337137
-0.04220749 -0.22875254 -0.13334796
-0.042083494 -0.22859171 -0.13243218
-0.041898154 -0.22789489 -0.13118237
-0.04187472 -0.22858986 -0.13082011
-0.041648004 -0.22751716 -0.12934874
-0.0415374 -0.22744448 -0.1285134
-0.041137833 -0.22483416 -0.12610804
-0.04111498 -0.22551197 -0.12575473
-0.04097642 -0.22516821 -0.12477411
-0.04074758 -0.22401674 -0.12330693
-0.040725008 -0.22468625 -0.12295794
-0.21717723 -0.30939385 -1.4278356
-0.21282712 -0.30687532 -1.3956405
-0.21070871 -0.3077504 -1.3794022
-0.21057352 -0.31175986 -1.3773122
-0.20840475 -0.31242368 -1.3607495
-0.2064508 -0.31335756 -1.3457382
-0.20631827 -0.31728804 -1.3436893
-0.20444699 -0.3182448 -1.3292961
-0.20235962 -0.31875178 -1.3133904
-0.20222965 -0.32260635 -1.3113812
-0.19998342 -0.32270348 -1.2943844
-0.19762225 -0.3225017 -1.2765989
-0.19483532 -0.3214277 -1.2558291
-0.19471022 -0.32513797 -1.253895
-0.19193697 -0.32391474 -1.2332685
-0.18903457 -0.32233182 -1.2117618
-0.18891324 -0.32593003 -1.2098862
-0.18602803 -0.32419696 -1.1885496
-0.18301149 -0.32208583 -1.1663215
-0.18289413 -0.32556692 -1.1645069
-0.18015493 -0.32381722 -1.1442779
-0.17755343 -0.3222292 -1.1250461
-0.17484552 -0.32031402 -1.1050975
-0.17473353 -0.3236354 -1.1033663
-0.17213076 -0.32176644 -1.0841997
-0.16956535 -0.3198653 -1.0653241
-0.16945684 -0.3230839 -1.0636463
-0.16717055 -0.32161883 -1.0467633
-0.16515128 -0.32063663 -1.0317688
-0.16504563 -0.32377002 -1.0301355
-0.16303806 -0.32268533 -1.015257
-0.16102704 -0.3215075 -1.000377
-0.15925719 -0.32078972 -0.98719674
-0.1591554 -0.3238088 -0.985623
-0.15712103 -0.32236785 -0.9706367
-0.15042262 -0.30997097 -0.9233326
-0.15032685 -0.3128114 -0.921852
-0.13376567 -0.2765371 -0.8063958
-0.13006309 -0.27035433 -0.78006953
-0.12998152 -0.27277356 -0.7788085
-0.10826528 -0.22232491 -0.6281823
-0.10827637 -0.2244802 -0.62769157
-0.10398183 -0.2159214 -0.5975263
-0.10391854 -0.21779864 -0.5965478
-0.08526504 -0.17255142 -0.46767503
-0.07751477 -0.15434137 -0.4139731
-0.07747016 -0.15566444 -0.41328344
-0.07395233 -0.14794433 -0.38876283
-0.07294586 -0.14666109 -0.38150075
-0.07232337 -0.14635083 -0.37688032
-0.07228233 -0.14756788 -0.37624592
-0.0717779 -0.1475357 -0.37244338
-0.071194 -0.147266 -0.3681037
-0.071153685 -0.14846171 -0.36748043
-0.070527285 -0.14803676 -0.36286113
-0.06983774 -0.14740847 -0.3578188
-0.069798306 -0.14857794 -0.3572092
-0.0692389 -0.14827326 -0.35306394
-0.06866969 -0.14791632 -0.34885854
-0.06843365 -0.14849472 -0.34692106
-0.068395115 -0.14963765 -0.3463253
-0.06805694 -0.14990309 -0.34369954
-0.06804786 -0.15112595 -0.34330502
-0.06800952 -0.1522631 -0.34271225
-0.06796949 -0.15339522 -0.34210807
-0.068029396 -0.1548293 -0.34217843
-0.06799098 -0.15596852 -0.3415846
-0.06821498 -0.15791331 -0.34275863
-0.06837583 -0.15967517 -0.34350437
-0.06856946 -0.1615486 -0.3444679
-0.06853055 -0.16270274 -0.3438663
-0.06865859 -0.16438521 -0.3443853
-0.068819225 -0.16617955 -0.34512073
-0.06878004 -0.16734155 -0.34451503
-0.0689379 -0.16914113 -0.34522793
-0.069064565 -0.1708485 -0.3457299
-0.06902512 -0.17201832 -0.3451201
-0.06914943 -0.17372984 -0.34560317
-0.069242425 -0.17534484 -0.34587532
-0.06933515 -0.1769653 -0.34614393
-0.06929539 -0.17814438 -0.34552932
-0.0693861 -0.17976758 -0.34578207
-0.06947742 -0.18139915 -0.34603712
-0.069437474 -0.1825839 -0.34541956
-0.069560386 -0.18433484 -0.34588152
-0.06968377 -0.18609534 -0.34634453
-0.06964359 -0.18728718 -0.34572327
-0.06973398 -0.18894248 -0.34596503
-0.06985601 -0.19071722 -0.346414
-0.069945216 -0.19238177 -0.34664434
-0.06990472 -0.19358279 -0.3460183
-0.06999441 -0.19525859 -0.34624928
-0.07011556 -0.1970563 -0.34668547
-0.07007485 -0.19826369 -0.3460561
-0.07019636 -0.20007463 -0.34649146
-0.07034998 -0.2020138 -0.3471352
-0.070309006 -0.203229 -0.34650177
-0.07039706 -0.20493379 -0.34671268
-0.07051693 -0.20676649 -0.34712988
-0.07066811 -0.20872746 -0.34774935
-0.07062678 -0.20995322 -0.34711042
-0.070776634 -0.21192342 -0.34771752
-0.07108858 -0.21453834 -0.3493775
-0.07104685 -0.21577606 -0.34873235
-0.07116499 -0.2176482 -0.3491259
-0.07153532 -0.22053547 -0.3511543
-0.07149316 -0.2217858 -0.35050255
-0.071839795 -0.22460823 -0.35236922
-0.07198743 -0.22664045 -0.35294297
-0.072330095 -0.22948071 -0.35477492
-0.072287224 -0.23075232 -0.3541121
-0.071930066 -0.23072147 -0.35142195
-0.07157488 -0.23068301 -0.34874868
-0.07153248 -0.23194072 -0.3480931
-0.0711721 -0.2318566 -0.34539276
-0.07065391 -0.2310864 -0.34168294
-0.0706121 -0.2323265 -0.34103656
-0.07009277 -0.2315151 -0.3373291
-0.06954181 -0.23054275 -0.33342567
-0.069118075 -0.23009735 -0.3303429
-0.06907729 -0.231307 -0.32971233
-0.06852803 -0.23028022 -0.32583615
-0.068074025 -0.2296488 -0.32257435
-0.06803393 -0.23083788 -0.32195452
-0.06758078 -0.23017845 -0.31870663
-0.06713014 -0.22950898 -0.31548032
-0.06709067 -0.23067965 -0.3148701
-0.06667067 -0.23011792 -0.31184655
-0.06622044 -0.22939813 -0.30863684
-0.065864064 -0.22908917 -0.30602664
-0.06582543 -0.23023498 -0.30542937
-0.065439075 -0.2297617 -0.3026365
-0.06502313 -0.22913182 -0.29966182
-0.064985044 -0.23026134 -0.29907304
-0.06456845 -0.22959882 -0.29610214
-0.06415238 -0.22891904 -0.2931398
-0.06379982 -0.22852348 -0.29058152
-0.06376255 -0.22962882 -0.29000536
-0.06331757 -0.22876121 -0.28687462
-0.06293431 -0.22817244 -0.28413588
-0.062897615 -0.22926076 -0.28356856
-0.06254657 -0.22880311 -0.28103834
-0.062165685 -0.22818127 -0.27832636
-0.062129498 -0.22925466 -0.27776685
-0.061748907 -0.228607 -0.27506405
-0.061337613 -0.22778676 -0.27217522
-0.0609894 -0.22726515 -0.26968333
-0.060953993 -0.22831513 -0.269136
-0.06060652 -0.2277723 -0.26665542
-0.060259856 -0.22721705 -0.2641843
-0.060224928 -0.22825281 -0.26364437
-0.059909787 -0.22783594 -0.26137453
-0.059625592 -0.22756527 -0.25929946
-0.059591074 -0.22858897 -0.25876585
-0.059277352 -0.22814272 -0.25651452
-0.058963764 -0.22768219 -0.25426802
-0.05868133 -0.2273723 -0.2522168
-0.05864744 -0.22837752 -0.2516928
-0.058335207 -0.2278873 -0.24946438
-0.058053765 -0.22754835 -0.24742839
-0.058020283 -0.2285415 -0.2469107
-0.057708822 -0.22801855 -0.24469687
-0.057397787 -0.2274829 -0.24248977
-0.057364736 -0.22846326 -0.24197875
-0.057054374 -0.22790849 -0.23978168
-0.056775223 -0.22751224 -0.23777826
-0.056465708 -0.22693269 -0.23559427
-0.056433275 -0.22789463 -0.23509285
-0.05615485 -0.22746782 -0.23310307
-0.055846702 -0.2268588 -0.23093721
-0.05581468 -0.22780865 -0.23044209
-0.055537533 -0.22735444 -0.22846927
-0.05523016 -0.22671261 -0.22631805
-0.055198546 -0.22765042 -0.2258292
-0.054952633 -0.2273429 -0.22405325
-0.05470703 -0.22702524 -0.22228232
-0.054431856 -0.22652218 -0.22033738
-0.054400764 -0.22744434 -0.2198567
-0.054155994 -0.22710094 -0.21809891
-0.05391187 -0.22674944 -0.21634817
-0.053881112 -0.22766165 -0.21587268
-0.053637497 -0.22729528 -0.21412973
-0.053424586 -0.22710226 -0.2125726
-0.053394143 -0.22800525 -0.21210192
-0.053151343 -0.22761473 -0.21037155
-0.05293919 -0.22739981 -0.20882599
-0.052727055 -0.22717464 -0.20728323
-0.052697062 -0.22806413 -0.20681958
-0.05248564 -0.22782795 -0.20528515
-0.052244287 -0.2273949 -0.2035771
-0.052214608 -0.22827516 -0.20311825
-0.052003667 -0.22801533 -0.20159376
-0.05179355 -0.22775035 -0.2000769
-0.051764157 -0.22862211 -0.19962247
-0.051554203 -0.2283427 -0.19811071
-0.05137433 -0.22824557 -0.19677763
-0.051165227 -0.22795172 -0.19527611
-0.05113624 -0.22881141 -0.19482799
-0.050926976 -0.22850096 -0.19332968
-0.050748274 -0.22837935 -0.19201192
-0.05071955 -0.22923122 -0.19156787
-0.05048168 -0.22870745 -0.18991028
-0.05027406 -0.2283714 -0.18843122
-0.050245646 -0.22921406 -0.18799196
-0.050038125 -0.22886303 -0.18651766
-0.04986072 -0.22870316 -0.1852199
-0.049653385 -0.2283334 -0.18375202
-0.04962538 -0.22916397 -0.18331906
-0.049448587 -0.22898553 -0.18203086
-0.049271658 -0.22879748 -0.18074426
-0.049243893 -0.22962096 -0.18031502
-0.049038373 -0.22922336 -0.17886822
-0.048833124 -0.22881715 -0.17742579
-0.048805647 -0.22963212 -0.17700097
-0.04862972 -0.22941417 -0.17572986
-0.048454385 -0.22919159 -0.17446451
-0.048249744 -0.22875455 -0.17303485
-0.048222646 -0.22955815 -0.17261595
-0.048047934 -0.22931708 -0.1713602
-0.047843974 -0.22885942 -0.16994122
-0.047817145 -0.22965522 -0.1695264
-0.047672182 -0.22960442 -0.16844471
-0.04746924 -0.22912933 -0.16703802
-0.047442645 -0.22991802 -0.16662692
-0.047269188 -0.229641 -0.16539022
-0.047095973 -0.22935693 -0.16415727
-0.046923004 -0.22906582 -0.16292803
-0.04689677 -0.22984385 -0.16252246
-0.04672416 -0.22954206 -0.16129877
-0.046551786 -0.22923316 -0.16007876
-0.046525795 -0.2300041 -0.15967691
-0.0463538 -0.2296847 -0.15846255
-0.046182044 -0.22935823 -0.15725192
-0.04601053 -0.22902466 -0.15604502
-0.045984898 -0.22978498 -0.1556487
-0.04581375 -0.22944085 -0.15444736
-0.04561379 -0.22886816 -0.15308923
-0.045588423 -0.22962067 -0.15269697
-0.04544578 -0.2294723 -0.15165886
-0.04524706 -0.22888413 -0.15031424
-0.04522193 -0.22962955 -0.1499257
-0.045023065 -0.22902417 -0.14858456
-0.0448245 -0.22841042 -0.14724793
-0.044655178 -0.22801505 -0.14607401
-0.044630453 -0.22874837 -0.14569177
-0.044460244 -0.22833256 -0.14451663
-0.044278514 -0.22781627 -0.1432812
-0.04425404 -0.22854216 -0.14290282
-0.04412727 -0.22845048 -0.1419695
-0.043973353 -0.22813453 -0.14089082
-0.04394907 -0.22885469 -0.14051542
-0.043792382 -0.22850409 -0.13942501
-0.04362705 -0.22807506 -0.13829026
-0.04344526 -0.22750294 -0.13706926
-0.043421336 -0.22821246 -0.13669941
-0.04328252 -0.22797836 -0.13571301
-0.043115363 -0.2275033 -0.13457671
-0.04309166 -0.22820641 -0.1342102
-0.043018404 -0.22849786 -0.13357908
-0.042894587 -0.22836447 -0.13267915
-0.042871006 -0.22906384 -0.13231461
-0.042692035 -0.22845736 -0.13112406
-0.04246229 -0.2274126 -0.12966675
-0.042347558 -0.22732852 -0.1288223
-0.042324357 -0.22801661 -0.12846363
-0.041942783 -0.22564699 -0.12621231
-0.041773494 -0.22507237 -0.12508643
-0.041750718 -0.22574784 -0.124734335
-0.041557003 -0.22494821 -0.12348386
-0.2219251 -0.3075224 -1.4290508
-0.2173636 -0.3048704 -1.3960453
-0.21722712 -0.30891848 -1.3939352
-0.21508716 -0.30980656 -1.3778712
-0.21285854 -0.3104685 -1.3612132
-0.21272482 -0.31443453 -1.3591459
-0.21071324 -0.31531978 -1.3440318
-0.20867284 -0.31607768 -1.3287394
-0.20854168 -0.31996778 -1.3267117
-0.20650402 -0.32060882 -1.3114711
-0.20409611 -0.32053003 -1.2936891
-0.2016492 -0.32028618 -1.2756635
-0.20152245 -0.3240455 -1.2737039
-0.19867118 -0.32292968 -1.2529258
-0.19583422 -0.3217233 -1.2322779
-0.19571117 -0.3253731 -1.2303754
-0.19286768 -0.3239803 -1.2097299
-0.18991493 -0.3222659 -1.188364
-0.18979564 -0.32580358 -1.18652
-0.18671273 -0.3236568 -1.1643094
-0.18393463 -0.32197356 -1.1442264
-0.18113945 -0.32014197 -1.1240577
-0.18102583 -0.32351157 -1.1223012
-0.1785285 -0.3221031 -1.1042193
-0.17576198 -0.32004595 -1.0843236
-0.17565182 -0.32331333 -1.0826205
-0.1731151 -0.32155892 -1.0643418
-0.17107941 -0.3207467 -1.0495112
-0.17097223 -0.32392555 -1.0478542
-0.16874366 -0.32257545 -1.0317438
-0.16668239 -0.32149354 -1.0167974
-0.16479197 -0.32069826 -1.0030363
-0.16468883 -0.32375762 -1.0014416
-0.16293189 -0.32314152 -0.98861855
-0.16031937 -0.32053247 -0.9700117
-0.16021909 -0.3235068 -0.96846133
-0.1381707 -0.2762536 -0.8182913
-0.12899761 -0.25778082 -0.7554913
-0.12891874 -0.26011986 -0.7542721
-0.12290527 -0.24848443 -0.71297395
-0.109724104 -0.21954936 -0.6233845
-0.10983287 -0.22191629 -0.62354493
-0.10976705 -0.22386827 -0.6225274
-0.106126934 -0.21708639 -0.59745765
-0.09263252 -0.18584657 -0.50617886
-0.0925785 -0.18744865 -0.50534374
-0.07944904 -0.1562257 -0.41675866
-0.075347304 -0.14728327 -0.3888633
-0.07530519 -0.14853226 -0.38821223
-0.0743601 -0.14745374 -0.3815178
-0.07375664 -0.14722289 -0.3771187
-0.07317616 -0.14702702 -0.37287992
-0.07313544 -0.1482346 -0.37225047
-0.072528094 -0.14793062 -0.36784258
-0.07192393 -0.14760959 -0.36346278
-0.071884 -0.14879377 -0.3628455
-0.07128002 -0.14843492 -0.3584773
-0.070769645 -0.14830874 -0.35473812
-0.07073045 -0.14947142 -0.35413206
-0.07035335 -0.14968678 -0.3512853
-0.07024611 -0.15064949 -0.3502306
-0.07003438 -0.15131134 -0.34848514
-0.06999558 -0.15246199 -0.34788534
-0.07009072 -0.15400033 -0.34817034
-0.07018382 -0.15553889 -0.34844026
-0.07014484 -0.15669508 -0.34783757
-0.07023882 -0.15824535 -0.34811088
-0.07050688 -0.16032164 -0.34952813
-0.070467584 -0.16148703 -0.34892064
-0.07059909 -0.16317043 -0.34943515
-0.07079781 -0.16506708 -0.35038853
-0.07092948 -0.16676837 -0.35089943
-0.07088978 -0.16794592 -0.35028562
-0.071020804 -0.16965705 -0.35078904
-0.071150236 -0.17137113 -0.35127988
-0.07111029 -0.17255582 -0.35066235
-0.07120566 -0.17417285 -0.35092768
-0.07130073 -0.17579527 -0.3511894
-0.0712606 -0.17698567 -0.3505689
-0.07132265 -0.1785097 -0.35061318
-0.071449816 -0.18025269 -0.35107937
-0.07154402 -0.18189439 -0.35132948
-0.0715036 -0.1830933 -0.35070452
-0.07159835 -0.18474628 -0.35095555
-0.0717246 -0.18651222 -0.35140872
-0.071683966 -0.18771751 -0.35078046
-0.07181068 -0.18949683 -0.35123342
-0.07193614 -0.19127974 -0.3516761
-0.071895264 -0.19249211 -0.35104415
-0.0720213 -0.19428886 -0.3514874
-0.072146125 -0.1960893 -0.3519207
-0.07226959 -0.19789279 -0.35234308
-0.07222836 -0.19911574 -0.3517056
-0.07235332 -0.20093638 -0.35213438
-0.07247778 -0.20276317 -0.3525578
-0.07243631 -0.20399319 -0.35191664
-0.072593376 -0.20595147 -0.35254538
-0.07271639 -0.2077936 -0.3529539
-0.07287152 -0.20976295 -0.3535653
-0.07282964 -0.21100493 -0.3529179
-0.073016405 -0.21310757 -0.35372695
-0.07317127 -0.21510047 -0.35433
-0.073129095 -0.21635158 -0.35367784
-0.07344554 -0.21897872 -0.3553031
-0.0735353 -0.22074798 -0.3554856
-0.073492765 -0.22200961 -0.35482794
-0.07397657 -0.22532913 -0.35750228
-0.07420312 -0.22766222 -0.35854283
-0.07405458 -0.22852366 -0.35721028
-0.074011534 -0.22980012 -0.3565449
-0.07397676 -0.23110972 -0.3559316
-0.073482096 -0.23056544 -0.35242212
-0.07343938 -0.23183233 -0.35176173
-0.07307237 -0.23177579 -0.34906352
-0.07270437 -0.23169915 -0.34636337
-0.07266212 -0.23295201 -0.3457103
-0.071998894 -0.23162475 -0.34116757
-0.07153253 -0.23108952 -0.33786488
-0.07096843 -0.23012245 -0.3339571
-0.07092734 -0.23134132 -0.33332175
-0.07042876 -0.23061399 -0.32983312
-0.069899105 -0.22973102 -0.32615715
-0.0698587 -0.23092934 -0.3255325
-0.06939442 -0.23029277 -0.32227284
-0.06893075 -0.22963773 -0.31902272
-0.06889097 -0.23081759 -0.31840768
-0.0684291 -0.23013864 -0.31517738
-0.0679994 -0.22958103 -0.3121519
-0.06757108 -0.22900994 -0.30914026
-0.06753219 -0.23016353 -0.30853894
-0.06710465 -0.22956666 -0.30554023
-0.066709384 -0.22909628 -0.3027456
-0.06667104 -0.23023355 -0.30215278
-0.06627651 -0.22973955 -0.29937008
-0.06585085 -0.22908404 -0.29640105
-0.06581305 -0.230205 -0.29581672
-0.0654198 -0.22967091 -0.29305437
-0.06499537 -0.22897281 -0.29010612
-0.064570904 -0.22825474 -0.28716296
-0.06453394 -0.22935086 -0.2865916
-0.064142585 -0.22876066 -0.28385845
-0.063751295 -0.22815265 -0.2811307
-0.06371487 -0.22923315 -0.28056747
-0.06332529 -0.22860616 -0.27785757
-0.06293583 -0.2279615 -0.27515325
-0.062899925 -0.22902638 -0.27459818
-0.062511265 -0.22835839 -0.2719062
-0.062155195 -0.22783309 -0.26941633
-0.061799932 -0.22729526 -0.2669359
-0.061764773 -0.22833812 -0.26639232
-0.06144156 -0.22793616 -0.26411188
-0.06111913 -0.22752315 -0.26184022
-0.061084405 -0.22855322 -0.26130328
-0.06076264 -0.22812116 -0.25904176
-0.06044131 -0.22767636 -0.2567869
-0.060407016 -0.22869365 -0.25625664
-0.06011787 -0.22839281 -0.2542006
-0.05982941 -0.22808212 -0.25215226
-0.059509568 -0.22759406 -0.24992011
-0.05947587 -0.22859362 -0.2493991
-0.05918811 -0.22825235 -0.24736425
-0.05883817 -0.22756785 -0.24496303
-0.058804896 -0.22855464 -0.24444866
-0.05851816 -0.22818363 -0.24242947
-0.058200452 -0.22763242 -0.2402303
-0.058167588 -0.22860713 -0.23972222
-0.057882104 -0.2282085 -0.23771985
-0.05756547 -0.22762619 -0.23553708
-0.057249278 -0.22703119 -0.23336105
-0.05721704 -0.22798745 -0.2328626
-0.056932695 -0.22754624 -0.23088026
-0.056617856 -0.22692166 -0.22872224
-0.05658602 -0.22786586 -0.22823007
-0.056302655 -0.22739546 -0.22626285
-0.05601997 -0.2269154 -0.22430326
-0.05598852 -0.22784823 -0.223817
-0.055706393 -0.22735105 -0.22186626
-0.05545562 -0.22702004 -0.22010212
-0.055205494 -0.22668082 -0.21834494
-0.055174567 -0.22759801 -0.21786685
-0.05492493 -0.22724392 -0.21611746
-0.05467564 -0.22687984 -0.21437325
-0.05464505 -0.22778709 -0.21390031
-0.05439626 -0.22740813 -0.21216387
-0.054178637 -0.22720185 -0.21061096
-0.053961623 -0.22698887 -0.20906426
-0.05393149 -0.22788262 -0.20859836
-0.05368411 -0.22747205 -0.20688102
-0.053467833 -0.22723703 -0.20534576
-0.053438008 -0.22812158 -0.20488468
-0.05325259 -0.22805908 -0.20353079
-0.053006038 -0.22761415 -0.20182881
-0.052976504 -0.22849014 -0.20137218
-0.05279231 -0.22841199 -0.20003161
-0.052577462 -0.2281352 -0.19851829
-0.052362897 -0.22784989 -0.19700941
-0.05233377 -0.22871381 -0.19655909
-0.052119635 -0.22841577 -0.19505693
-0.051905792 -0.22810923 -0.1935592
-0.05187695 -0.22896461 -0.19311331
-0.051663887 -0.22864746 -0.19162416
-0.051450767 -0.22831963 -0.19013757
-0.051422212 -0.22916654 -0.1896961
-0.051209882 -0.22882827 -0.18821818
-0.051027793 -0.22867548 -0.1869134
-0.05084629 -0.22851788 -0.18561429
-0.05081812 -0.22935343 -0.18517874
-0.050575797 -0.2287837 -0.183542
-0.050364368 -0.22840542 -0.18208164
-0.05033651 -0.22923175 -0.1816509
-0.050186172 -0.2292439 -0.18053603
-0.049975786 -0.22884823 -0.17908809
-0.049948167 -0.22966747 -0.17866106
-0.049767897 -0.22945893 -0.17738493
-0.049558204 -0.22904268 -0.17594768
-0.049378444 -0.22881925 -0.17467932
-0.049351208 -0.22962709 -0.17425823
-0.049142193 -0.2291902 -0.17283164
-0.04896307 -0.2289484 -0.17157303
-0.048936095 -0.22974844 -0.17115599
-0.04875769 -0.22949843 -0.16990489
-0.04854963 -0.22903316 -0.16849306
-0.048522916 -0.22982539 -0.1680801
-0.048315283 -0.22934735 -0.16667493
-0.04813779 -0.2290713 -0.16543767
-0.04799035 -0.22899912 -0.1643671
-0.047963995 -0.22978075 -0.16395968
-0.047787074 -0.22948764 -0.1627313
-0.0476104 -0.22918741 -0.16150662
-0.047584284 -0.22996192 -0.1611029
-0.047407977 -0.22965115 -0.15988384
-0.04723192 -0.22933337 -0.15866856
-0.047206044 -0.2301008 -0.15826854
-0.04703035 -0.22977237 -0.15705879
-0.0468549 -0.22943689 -0.15585278
-0.046679713 -0.22909448 -0.15465058
-0.046654195 -0.22985125 -0.1542561
-0.0464495 -0.22927622 -0.15289903
-0.046274357 -0.22891106 -0.15170333
-0.046249107 -0.22965999 -0.15131295
-0.046074867 -0.22928832 -0.1501258
-0.045900088 -0.22890358 -0.14893815
-0.045875076 -0.2296454 -0.14855146
-0.045642857 -0.22881 -0.14706166
-0.045469638 -0.22841305 -0.14588888
-0.045296587 -0.22800842 -0.14471942
-0.04527198 -0.22873822 -0.14433901
-0.04509872 -0.22831856 -0.14317204
-0.044969738 -0.22823364 -0.1422415
-0.044945337 -0.22895737 -0.14186424
-0.044789024 -0.22864915 -0.14079231
-0.044614114 -0.22818688 -0.1396248
-0.04458994 -0.2289038 -0.1392511
-0.044419818 -0.22846566 -0.13811238
-0.044245783 -0.22798751 -0.13695566
-0.044105906 -0.22777262 -0.13597986
-0.044082068 -0.22847965 -0.13561131
-0.043900046 -0.2279154 -0.13441895
-0.04384803 -0.22839023 -0.1339052
-0.04382434 -0.22909275 -0.133539
-0.04368541 -0.22885846 -0.13257551
-0.043503832 -0.22826906 -0.13139327
-0.04348037 -0.22896495 -0.13103053
-0.043258075 -0.22802612 -0.12964225
-0.04313058 -0.2278573 -0.12874548
-0.04276804 -0.22573496 -0.12664211
-0.042745102 -0.22641523 -0.12628752
-0.042561565 -0.22575518 -0.12511
-0.042354614 -0.22488894 -0.12381544
-0.042331956 -0.22556083 -0.12346521
-0.2265188 -0.30976436 -1.4280045
-0.22185916 -0.30706447 -1.3950213
-0.2196733 -0.3079709 -1.3789465
-0.21953818 -0.31197888 -1.3768573
-0.21726304 -0.31261808 -1.36021
-0.21520837 -0.31352055 -1.3450857
-0.21507592 -0.31744903 -1.3430381
-0.21299301 -0.3181861 -1.3277553
-0.21091151 -0.3188447 -1.3125045
-0.21078165 -0.3226965 -1.3104968
-0.20832288 -0.3225929 -1.2927263
-0.20582418 -0.3223237 -1.2747126
-0.20291013 -0.32123303 -1.2539196
-0.20278521 -0.32493755 -1.2519885
-0.19988753 -0.3237015 -1.2313546
-0.1969812 -0.3223338 -1.2106944
-0.19686 -0.32592878 -1.2088205
-0.19384372 -0.32418332 -1.1874691
-0.19069222 -0.32206398 -1.1652424
-0.19057496 -0.32554176 -1.1634296
-0.18773703 -0.32382932 -1.1433604
-0.18488158 -0.3219683 -1.1232053
-0.18232892 -0.32058197 -1.1051104
-0.18221694 -0.32390323 -1.1033791
-0.17939056 -0.32181686 -1.083497
-0.17679745 -0.32008505 -1.0652052
-0.17668895 -0.32330316 -1.0635277
-0.17460972 -0.32246962 -1.048707
-0.1723317 -0.3211393 -1.032585
-0.17222598 -0.32427502 -1.0309504
-0.17012046 -0.32317147 -1.0160142
-0.1681896 -0.32235643 -1.0022624
-0.16639401 -0.3217558 -0.9894303
-0.166292 -0.32478142 -0.98785317
-0.16362251 -0.32214457 -0.9692593
-0.14106017 -0.27509707 -0.81896883
-0.14097503 -0.27762222 -0.8176525
-0.13159524 -0.25904855 -0.7548996
-0.1254425 -0.24746889 -0.71356887
-0.12536775 -0.24968624 -0.712413
-0.11188789 -0.22060539 -0.6228916
-0.112000644 -0.22297426 -0.62305117
-0.10827643 -0.21622606 -0.59796166
-0.10821309 -0.21810453 -0.5969825
-0.09441174 -0.1867149 -0.50577354
-0.08097395 -0.15561534 -0.41711622
-0.080929026 -0.156948 -0.41642156
-0.07673439 -0.14796022 -0.38854733
-0.075767964 -0.14689024 -0.3818479
-0.07515121 -0.14666472 -0.3774457
-0.07511012 -0.14788346 -0.3768104
-0.074517235 -0.14768153 -0.37257445
-0.073896475 -0.14738293 -0.36816344
-0.07385615 -0.14857878 -0.36754006
-0.07323901 -0.14825141 -0.36316323
-0.072621614 -0.14789793 -0.35879186
-0.07258209 -0.1490704 -0.3581807
-0.07206087 -0.14893891 -0.354444
-0.07167573 -0.1491575 -0.35159537
-0.07156687 -0.15012084 -0.35054028
-0.07152796 -0.15127508 -0.34993863
-0.071312234 -0.151935 -0.34819406
-0.07141056 -0.15347207 -0.3484798
-0.071371675 -0.15462549 -0.34787858
-0.07146783 -0.15616554 -0.34814778
-0.071564995 -0.15771455 -0.34842184
-0.07152592 -0.15887351 -0.34781772
-0.0718011 -0.16095328 -0.3492333
-0.0719367 -0.16263504 -0.34974876
-0.07214112 -0.1645294 -0.35070348
-0.07210153 -0.16570337 -0.35009155
-0.07223721 -0.1674066 -0.35060155
-0.072372325 -0.1691161 -0.35110593
-0.0723325 -0.17029724 -0.35049024
-0.0724659 -0.17201324 -0.3509802
-0.07256452 -0.17362896 -0.35124627
-0.07252448 -0.17481649 -0.35062727
-0.07262272 -0.17644046 -0.35088828
-0.07268723 -0.17796353 -0.35093313
-0.072818436 -0.17970489 -0.35140026
-0.07277811 -0.18090096 -0.3507768
-0.07287548 -0.1825442 -0.35102618
-0.07297351 -0.18419588 -0.35127795
-0.07293299 -0.18539765 -0.35065153
-0.07306315 -0.18716548 -0.3511038
-0.07319393 -0.18894318 -0.35155776
-0.07315317 -0.19015203 -0.35092762
-0.07328254 -0.19193684 -0.35136944
-0.07341264 -0.19373198 -0.35181364
-0.0735415 -0.19553079 -0.35224786
-0.07350038 -0.19675024 -0.3516122
-0.07362773 -0.19855562 -0.3520337
-0.073756754 -0.20037465 -0.35246345
-0.073715396 -0.20160113 -0.35182413
-0.07384378 -0.20342983 -0.35224667
-0.0740057 -0.20538619 -0.3528765
-0.07396408 -0.20662045 -0.35223314
-0.074091 -0.20846446 -0.3526408
-0.07425081 -0.21043609 -0.35325113
-0.07444318 -0.21253653 -0.35406145
-0.07440113 -0.21378341 -0.3534115
-0.07456068 -0.21577859 -0.3540135
-0.074885935 -0.2184022 -0.35564083
-0.074843496 -0.21966101 -0.35498467
-0.074936405 -0.2214318 -0.35516644
-0.075433165 -0.22474614 -0.35784382
-0.07539025 -0.2260191 -0.35718027
-0.07562323 -0.22835533 -0.35821933
-0.075472176 -0.2292155 -0.35688737
-0.0754376 -0.23052502 -0.3562741
-0.075394556 -0.23180169 -0.35560864
-0.07488906 -0.2312521 -0.35210162
-0.074514024 -0.23119877 -0.34940153
-0.07447154 -0.23245865 -0.34874478
-0.07409573 -0.23237823 -0.34604642
-0.07341712 -0.23105712 -0.34150007
-0.07337533 -0.23229651 -0.34085405
-0.07289873 -0.23175631 -0.33755368
-0.07232205 -0.2307831 -0.33364877
-0.0718121 -0.23006032 -0.33015746
-0.07177134 -0.23126926 -0.3295273
-0.07122988 -0.23038054 -0.325854
-0.070755035 -0.22974819 -0.32259184
-0.07071494 -0.23093727 -0.321972
-0.07024103 -0.23027723 -0.31872422
-0.06976862 -0.22960252 -0.31549144
-0.06972916 -0.23077315 -0.31488124
-0.06928999 -0.23021093 -0.3118579
-0.06885222 -0.2296352 -0.30884844
-0.068414964 -0.22904222 -0.30584744
-0.068376355 -0.23018734 -0.30525056
-0.067972414 -0.2297127 -0.3024579
-0.06756894 -0.22922225 -0.2996731
-0.06753086 -0.23035175 -0.29908437
-0.06709575 -0.22969161 -0.29611748
-0.06669355 -0.22916111 -0.293353
-0.066259384 -0.22846688 -0.29040247
-0.066222146 -0.22957152 -0.28982666
-0.06578822 -0.22884886 -0.28688568
-0.065387905 -0.22826223 -0.28415042
-0.06535121 -0.22935054 -0.28358313
-0.06495123 -0.22873831 -0.28085735
-0.06455273 -0.22811489 -0.27814537
-0.06451657 -0.22918756 -0.27758622
-0.06411842 -0.22853868 -0.27488387
-0.06372083 -0.22787426 -0.2721898
-0.06335663 -0.22735222 -0.26969802
-0.06332123 -0.2284022 -0.26915073
-0.0629581 -0.22786051 -0.2666721
-0.06262757 -0.22746147 -0.26438996
-0.06259262 -0.22849794 -0.26384968
-0.062263094 -0.22808145 -0.26157963
-0.061934013 -0.22765233 -0.25931638
-0.0618995 -0.22867604 -0.25878277
-0.061571088 -0.22822773 -0.25652957
-0.061275437 -0.2279295 -0.25447202
-0.060980473 -0.2276214 -0.25242215
-0.060946558 -0.22862734 -0.25189778
-0.060619622 -0.22813584 -0.24966726
-0.06032535 -0.22779718 -0.2476309
-0.060291838 -0.22879103 -0.24711284
-0.05993403 -0.2281027 -0.2447134
-0.05964079 -0.2277343 -0.24269268
-0.05960771 -0.22871538 -0.24218127
-0.059282903 -0.22816074 -0.23998372
-0.05899093 -0.2277647 -0.23797983
-0.058666978 -0.22718531 -0.23579535
-0.058634523 -0.22814795 -0.23529355
-0.05831124 -0.2275495 -0.23311915
-0.05802039 -0.2271109 -0.23113528
-0.057988346 -0.22806147 -0.23063979
-0.05766642 -0.22743343 -0.2284834
-0.057376545 -0.22696565 -0.22651464
-0.057344902 -0.22790414 -0.22602543
-0.057055913 -0.227421 -0.22406727
-0.05676729 -0.22692643 -0.22211501
-0.056510817 -0.22659771 -0.22034952
-0.056479726 -0.22751985 -0.21986884
-0.056224078 -0.22717795 -0.21811292
-0.055968758 -0.22682613 -0.2163622
-0.055938 -0.22773834 -0.2158867
-0.05568319 -0.22737159 -0.21414372
-0.05542871 -0.22699489 -0.21240593
-0.05539829 -0.22789715 -0.21193561
-0.055175934 -0.2276886 -0.21038377
-0.054954186 -0.2274733 -0.20883815
-0.05470113 -0.227065 -0.20711946
-0.054671165 -0.22795379 -0.20665617
-0.05445015 -0.22771648 -0.205122
-0.05426066 -0.2276556 -0.20376714
-0.05423096 -0.22853658 -0.20330793
-0.053978883 -0.22808896 -0.2016072
-0.05379064 -0.22801241 -0.20026568
-0.05376122 -0.22888488 -0.19981089
-0.053541638 -0.22860578 -0.19829865
-0.05332234 -0.22831814 -0.19679087
-0.053103335 -0.22802205 -0.19528757
-0.05307435 -0.22888173 -0.19483945
-0.052855775 -0.22857286 -0.1933428
-0.05263784 -0.22825764 -0.19185252
-0.052609142 -0.22910881 -0.19140884
-0.052391298 -0.22877866 -0.18992333
-0.052174106 -0.22844234 -0.18844426
-0.052145693 -0.229285 -0.188005
-0.051959656 -0.22913028 -0.18670113
-0.051774215 -0.22897077 -0.18540291
-0.051526204 -0.2284033 -0.18376485
-0.0514982 -0.22923388 -0.18333189
-0.05128204 -0.22885329 -0.18187259
-0.051128443 -0.22886677 -0.18075696
-0.05110068 -0.22969025 -0.18032771
-0.050885573 -0.22929227 -0.17888084
-0.05070124 -0.22908539 -0.17760377
-0.050673738 -0.22990105 -0.17717859
-0.05045932 -0.22948249 -0.17574242
-0.05027561 -0.22925709 -0.17447497
-0.050061725 -0.22882216 -0.17304723
-0.05003463 -0.22962578 -0.17262834
-0.049851563 -0.22938202 -0.17137064
-0.049669098 -0.22913365 -0.17011859
-0.049642242 -0.22993015 -0.1697034
-0.049429458 -0.22946255 -0.16829266
-0.049216963 -0.22898646 -0.16688634
-0.049190395 -0.22977446 -0.16647558
-0.04900896 -0.22949648 -0.16523923
-0.048858352 -0.22942278 -0.16416937
-0.048677377 -0.22913131 -0.16294006
-0.048651148 -0.22990933 -0.16253449
-0.04847052 -0.22960721 -0.16131069
-0.048290156 -0.22929807 -0.16009068
-0.04826416 -0.23006901 -0.15968882
-0.048084166 -0.22974932 -0.15847443
-0.047904406 -0.22942252 -0.15726373
-0.047724895 -0.22908866 -0.15605676
-0.04769926 -0.22984898 -0.15566044
-0.04752013 -0.22950466 -0.15445913
-0.04731056 -0.22893159 -0.15310091
-0.04728519 -0.2296841 -0.15270866
-0.04710609 -0.229317 -0.15151387
-0.046927802 -0.22894692 -0.15032579
-0.046902668 -0.22969232 -0.14993724
-0.046723925 -0.22930565 -0.14875048
-0.046486046 -0.22847252 -0.14725935
-0.04630877 -0.22807719 -0.14608562
-0.046284046 -0.2288105 -0.14570338
-0.046107054 -0.22840399 -0.1445348
-0.045929715 -0.22798595 -0.14336689
-0.04590523 -0.22871217 -0.14298834
-0.045773465 -0.22862591 -0.1420584
-0.045613535 -0.22831915 -0.14098562
-0.04558924 -0.22903971 -0.14061004
-0.045410305 -0.22857547 -0.13944344
-0.045236163 -0.22813892 -0.13830379
-0.045057997 -0.22766244 -0.1371461
-0.045034066 -0.22837228 -0.13677609
-0.04489108 -0.22815584 -0.135801
-0.04470469 -0.22759335 -0.13460761
-0.04468098 -0.22829656 -0.13424106
-0.044628203 -0.228771 -0.13372748
-0.04448608 -0.22853799 -0.13276324
-0.044462487 -0.2292377 -0.1323985
-0.04427666 -0.22864625 -0.13121721
-0.044048842 -0.22770962 -0.12982766
-0.043918457 -0.22754197 -0.1289302
-0.04389524 -0.2282305 -0.12857129
-0.043523535 -0.22610366 -0.12647003
-0.04333553 -0.2254454 -0.12529147
-0.043312725 -0.2261218 -0.1249389
-0.04310079 -0.2252531 -0.12364547
-0.23121172 -0.30781165 -1.4288459
-0.2264426 -0.30513903 -1.3957832
-0.22630614 -0.3091862 -1.3936735
-0.22404452 -0.3100227 -1.3774008
-0.22170673 -0.31065708 -1.3606449
-0.22157307 -0.31462127 -1.3585786
-0.21946959 -0.31549048 -1.343418
-0.2174444 -0.3164047 -1.3287998
-0.21731324 -0.3202948 -1.3267721
-0.21507491 -0.32074612 -1.3107733
-0.21250546 -0.32056487 -1.292605
-0.20983261 -0.32011154 -1.2737802
-0.20970605 -0.32386523 -1.2718235
-0.20672803 -0.32273367 -1.2510263
-0.20376317 -0.3215086 -1.2303488
-0.20364031 -0.3251526 -1.2284493
-0.20067467 -0.32375208 -1.207816
-0.19759676 -0.32203358 -1.186476
-0.19747767 -0.32556558 -1.1846349
-0.19425875 -0.32340616 -1.1624194
-0.19148596 -0.32194763 -1.1431699
-0.1885861 -0.3201412 -1.1231172
-0.18847258 -0.32350788 -1.1213623
-0.18587478 -0.3221087 -1.1033366
-0.18310346 -0.3202703 -1.0842044
-0.18299331 -0.32353717 -1.0825015
-0.18039821 -0.32188267 -1.0645673
-0.1785657 -0.32165116 -1.0516385
-0.1784583 -0.32483622 -1.0499783
-0.17609574 -0.32341442 -1.0336272
-0.1738067 -0.32205042 -1.0177809
-0.17213586 -0.32188398 -1.0059803
-0.17203242 -0.32495204 -1.0043811
-0.16970049 -0.32328182 -0.9883172
-0.16524172 -0.31695136 -0.9584873
-0.16514261 -0.31989083 -0.956955
-0.13578498 -0.25877836 -0.7660312
-0.13474287 -0.25901863 -0.75857407
-0.1346637 -0.2613669 -0.75735
-0.11753926 -0.2253239 -0.64609504
-0.1144258 -0.22041431 -0.62540364
-0.11309154 -0.2194584 -0.61621237
-0.113026485 -0.22138795 -0.61520654
-0.11064839 -0.2179122 -0.5993248
-0.10159913 -0.19860694 -0.540606
-0.101541564 -0.20031431 -0.53971606
-0.0830745 -0.15782745 -0.42075917
-0.07832885 -0.14778855 -0.3899416
-0.078286625 -0.1490408 -0.38928884
-0.07727672 -0.1479081 -0.38244745
-0.07659224 -0.14754298 -0.37769687
-0.076014645 -0.14741838 -0.37363648
-0.075973846 -0.14862825 -0.37300584
-0.07537883 -0.14842466 -0.3688441
-0.07481715 -0.14828299 -0.36490133
-0.074777074 -0.14947158 -0.36428177
-0.07417436 -0.14918892 -0.36008784
-0.07382035 -0.14953767 -0.3574792
-0.073780864 -0.15070887 -0.3568687
-0.0733878 -0.1509326 -0.35401848
-0.073384374 -0.15219355 -0.35363835
-0.07337773 -0.15344727 -0.35323742
-0.073338434 -0.15461282 -0.35262987
-0.07350764 -0.15635517 -0.35333794
-0.07378393 -0.15840526 -0.35471863
-0.073744275 -0.15958124 -0.35410562
-0.07388195 -0.16125941 -0.35460827
-0.074126504 -0.16325039 -0.35578057
-0.07408655 -0.1644356 -0.35516277
-0.07422778 -0.16614582 -0.35568154
-0.07443699 -0.16806252 -0.3566242
-0.0745748 -0.16978015 -0.35711667
-0.07453442 -0.17097752 -0.35649252
-0.07463644 -0.17260002 -0.356758
-0.07473942 -0.17423172 -0.3570278
-0.07469886 -0.17543484 -0.35640064
-0.074766025 -0.17696677 -0.3564447
-0.07490219 -0.1787156 -0.3569167
-0.07486143 -0.17992443 -0.3562866
-0.07489263 -0.18135765 -0.35610333
-0.07499287 -0.18301098 -0.35634762
-0.075127006 -0.1847778 -0.35680014
-0.07508598 -0.18599443 -0.35616595
-0.07518666 -0.18766566 -0.35640827
-0.075321145 -0.18945244 -0.35685763
-0.07527991 -0.19067548 -0.3562201
-0.07544783 -0.19258359 -0.35687238
-0.07558153 -0.19438826 -0.35731116
-0.075540036 -0.19561909 -0.3566696
-0.07570696 -0.19754666 -0.35730934
-0.07587352 -0.19948234 -0.35794407
-0.07600321 -0.20130259 -0.35835004
-0.07596131 -0.20254534 -0.35770226
-0.07612653 -0.2044992 -0.35832247
-0.07629384 -0.20646971 -0.3589528
-0.076251656 -0.20772094 -0.35830057
-0.07641467 -0.20969063 -0.3589006
-0.076614946 -0.21180108 -0.35972527
-0.07670751 -0.21354048 -0.35989076
-0.076664925 -0.21480358 -0.35923237
-0.07689845 -0.21705863 -0.3602518
-0.07699084 -0.21881618 -0.3604111
-0.07694797 -0.22008769 -0.3597483
-0.07715351 -0.22226875 -0.36059025
-0.077660315 -0.22557133 -0.36325198
-0.07761689 -0.2268592 -0.36258066
-0.077575676 -0.22815524 -0.36192262
-0.07777546 -0.23035616 -0.36271828
-0.07746329 -0.23063461 -0.36042613
-0.077419885 -0.23192197 -0.35975507
-0.07707005 -0.23203775 -0.35724178
-0.07661765 -0.2317448 -0.3541166
-0.07657474 -0.23301741 -0.3534532
-0.07601689 -0.2322853 -0.34970412
-0.07549566 -0.23167259 -0.3461811
-0.07545344 -0.23292476 -0.3455284
-0.07482821 -0.23186633 -0.34139368
-0.074306525 -0.23119338 -0.3378845
-0.073682435 -0.2300872 -0.33377126
-0.07364136 -0.23130538 -0.33313626
-0.0730861 -0.23043743 -0.32944405
-0.072531566 -0.22954819 -0.32576287
-0.072491206 -0.23074506 -0.325139
-0.07200704 -0.23010987 -0.32188508
-0.071523435 -0.22945604 -0.31864038
-0.0714837 -0.23063448 -0.31802613
-0.07103431 -0.23009278 -0.3149925
-0.07061954 -0.22967783 -0.31216854
-0.07017195 -0.22910565 -0.30915627
-0.07013306 -0.23025924 -0.30855495
-0.06968629 -0.22966135 -0.3055557
-0.069273405 -0.22919025 -0.30276087
-0.06923506 -0.23032752 -0.30216807
-0.068822935 -0.22983293 -0.29938537
-0.06834406 -0.22902729 -0.29621702
-0.06830628 -0.23014754 -0.2956331
-0.06786155 -0.22946168 -0.29267314
-0.067451775 -0.22891223 -0.2899226
-0.06700816 -0.22819296 -0.28698
-0.06697123 -0.22928838 -0.28640902
-0.06656231 -0.22869696 -0.2836763
-0.06612056 -0.22793779 -0.2807581
-0.06608417 -0.22901689 -0.28019562
-0.06570995 -0.22853942 -0.27767688
-0.06530329 -0.2278952 -0.2749751
-0.06526741 -0.22895938 -0.27442038
-0.064894505 -0.22844605 -0.271921
-0.064522445 -0.22792031 -0.26943123
-0.064150885 -0.22738042 -0.2669489
-0.06411572 -0.22842327 -0.2664053
-0.06377846 -0.22802252 -0.26412693
-0.06344165 -0.2276091 -0.2618553
-0.06340692 -0.22863917 -0.26131836
-0.06307106 -0.22820807 -0.25905848
-0.06276822 -0.2279232 -0.25699157
-0.062733896 -0.22894119 -0.25646093
-0.062398817 -0.2284775 -0.25421578
-0.062097557 -0.22816637 -0.25216737
-0.06179639 -0.22784242 -0.2501233
-0.06176267 -0.22884269 -0.2496019
-0.061429325 -0.22833711 -0.24738091
-0.061096124 -0.2278173 -0.24516496
-0.061062828 -0.22880478 -0.24465021
-0.060763244 -0.22843401 -0.24263059
-0.060431115 -0.227883 -0.24043098
-0.06039823 -0.22885843 -0.23992254
-0.06006701 -0.22828968 -0.23773444
-0.059735972 -0.2277068 -0.23555157
-0.05940537 -0.22711124 -0.23337539
-0.059373125 -0.22806747 -0.23287694
-0.05907598 -0.22762585 -0.23089455
-0.05874644 -0.22699909 -0.2287347
-0.058714602 -0.22794326 -0.22824255
-0.05838603 -0.22729902 -0.22609448
-0.058123246 -0.22699353 -0.2243173
-0.05809179 -0.22792636 -0.22383106
-0.057796866 -0.22742873 -0.22188024
-0.057534892 -0.22709744 -0.22011615
-0.057241008 -0.22657944 -0.2181785
-0.05721011 -0.22749594 -0.21770075
-0.056949317 -0.22714081 -0.21595174
-0.05672135 -0.22695619 -0.21438727
-0.056690756 -0.22786345 -0.21391435
-0.0564632 -0.22766605 -0.21235654
-0.05620353 -0.22727749 -0.21062489
-0.0559769 -0.22706413 -0.20907812
-0.055946764 -0.22795789 -0.20861223
-0.055720568 -0.22773176 -0.20707214
-0.055494335 -0.22749528 -0.20553471
-0.055464488 -0.22838053 -0.20507327
-0.055239018 -0.2281331 -0.2035443
-0.054981258 -0.22768776 -0.20184226
-0.054951724 -0.22856377 -0.20138563
-0.054727294 -0.22829616 -0.1998698
-0.054535065 -0.22820814 -0.1985316
-0.054278735 -0.22773205 -0.19684833
