ply
format ascii 1.0
element vertex 1377
property float x
property float y
property float z
end_header
0.13670653 -0.16205548 -0.27807233
0.13664564 -0.16286135 -0.2774866
0.13608222 -0.16303635 -0.2759392
0.13419986 -0.16153976 -0.27187648
0.13414006 -0.16233106 -0.2713013
0.110657595 -0.13323706 -0.2261625
0.10383277 -0.12518905 -0.21282671
0.10378729 -0.12579091 -0.21238925
0.10198987 -0.12412124 -0.20863782
0.10128295 -0.12384881 -0.206958
0.10102579 -0.12415664 -0.20613056
0.10098156 -0.12474199 -0.2057051
0.100691535 -0.12500183 -0.2048183
0.10054705 -0.12545203 -0.20420595
0.10050299 -0.12603521 -0.20378205
0.10041838 -0.12656383 -0.20328252
0.10061992 -0.12747878 -0.20331614
0.10057576 -0.12806325 -0.20289132
0.10068199 -0.12885311 -0.20274544
0.10078819 -0.12964505 -0.2025984
0.10080221 -0.13031189 -0.20227991
0.10075788 -0.13089862 -0.20185345
0.10076506 -0.13155715 -0.20152175
0.10073387 -0.13216266 -0.20111924
0.10068951 -0.1327498 -0.20069247
0.10086596 -0.13364935 -0.20066953
0.10123069 -0.13481967 -0.2009885
0.10118602 -0.1354108 -0.20055884
0.10165374 -0.13673763 -0.20106046
0.10195366 -0.13782956 -0.20125389
0.10246211 -0.13922869 -0.20182216
0.102416776 -0.13982877 -0.201386
0.10337496 -0.14189804 -0.20275874
0.10497125 -0.14492016 -0.20527177
0.10492464 -0.14553705 -0.20482337
0.10670715 -0.14887056 -0.20765142
0.108674936 -0.1525065 -0.21079692
0.11051947 -0.15598617 -0.21370734
0.1104701 -0.15663959 -0.2132324
0.11231048 -0.16015327 -0.21611401
0.11345533 -0.16263616 -0.21774858
0.113404475 -0.16330928 -0.21725935
0.113802694 -0.16467164 -0.21756266
0.113956764 -0.16566396 -0.21743259
0.11390559 -0.16634123 -0.21694031
0.11345981 -0.16640435 -0.2157561
0.11272046 -0.16600287 -0.21406126
0.11159427 -0.16498393 -0.21169627
0.11154414 -0.16564739 -0.21121404
0.111096665 -0.1656811 -0.21004115
0.11011136 -0.16485278 -0.20793843
0.11006188 -0.16550769 -0.20746242
0.10926702 -0.16496515 -0.20569928
0.108470015 -0.16440843 -0.20393819
0.10842125 -0.16505377 -0.20346911
0.10742819 -0.16416167 -0.2013803
0.10652894 -0.16340932 -0.1994593
0.10577762 -0.1628877 -0.19779745
0.10573007 -0.16351698 -0.19734006
0.10492926 -0.16289806 -0.19560221
0.10417795 -0.16235061 -0.1939541
0.10413111 -0.16297051 -0.19350351
0.10328303 -0.16224529 -0.19170022
0.102484725 -0.16159232 -0.18998691
0.10243865 -0.16220221 -0.18954362
0.10164255 -0.16153657 -0.18784277
0.10080048 -0.16078152 -0.18607084
0.100006565 -0.1600974 -0.18438543
0.0999616 -0.16069245 -0.18395293
0.09916985 -0.15999569 -0.18227986
0.09842781 -0.15937436 -0.18069497
0.09838356 -0.15996006 -0.18026926
0.09759556 -0.15924288 -0.17861672
0.09690509 -0.15868637 -0.1771305
0.09686152 -0.15926306 -0.17671134
0.096173815 -0.15869717 -0.17523722
0.09563412 -0.15838543 -0.17400995
0.094997935 -0.15789379 -0.17262933
0.09495521 -0.15845925 -0.17221832
0.09446558 -0.1582188 -0.17108242
0.09392894 -0.15788658 -0.16987394
0.09388668 -0.15844591 -0.16946739
0.09339944 -0.15819293 -0.1683443
0.09296141 -0.1580235 -0.16730376
0.09291956 -0.15857738 -0.16690117
0.092482656 -0.15840124 -0.16586713
0.09204666 -0.15822096 -0.16483767
0.091610424 -0.15803434 -0.16381094
0.09156916 -0.15858045 -0.16341399
0.09118344 -0.15847982 -0.16247186
0.09084622 -0.15846549 -0.16160907
0.09080527 -0.15900743 -0.16121516
0.090517774 -0.15908097 -0.16043401
0.090231106 -0.15915236 -0.15965609
0.0901904 -0.15969107 -0.15926453
0.08990411 -0.15975766 -0.15849015
0.08966669 -0.15991488 -0.1577937
0.08942945 -0.16006951 -0.15709914
0.08938907 -0.16060404 -0.15671061
0.08920125 -0.16085073 -0.15609466
0.0889651 -0.16100043 -0.15540549
0.088924885 -0.16153271 -0.1550186
0.08868779 -0.16167612 -0.15433034
0.0884999 -0.16191413 -0.15371881
0.08845986 -0.16244413 -0.15333357
0.08822448 -0.1625839 -0.1526517
0.08798934 -0.16272117 -0.15197174
0.087753035 -0.16285315 -0.15129162
0.08771328 -0.1633793 -0.1509092
0.08752617 -0.16360655 -0.15030538
0.08729101 -0.16373375 -0.14963073
0.087251425 -0.16425763 -0.14924994
0.08701586 -0.16437952 -0.14857708
0.08678116 -0.16450022 -0.1479071
0.086741775 -0.16502152 -0.14752819
0.08650662 -0.1651368 -0.14685993
0.08632109 -0.16535237 -0.1462664
0.08613497 -0.16556445 -0.14567319
0.086095825 -0.16608252 -0.14529663
0.08586198 -0.16619077 -0.14463545
0.08562752 -0.16629474 -0.14397499
0.08558857 -0.16681021 -0.14360031
0.085305795 -0.16680688 -0.14287221
0.085072584 -0.16690561 -0.14221774
0.084791 -0.16689768 -0.14149517
0.084752396 -0.16740863 -0.14112377
0.08447019 -0.1673937 -0.1404033
0.08414251 -0.16727652 -0.13961984
0.08410418 -0.16778393 -0.13925104
0.08382255 -0.16776046 -0.13853657
0.08340018 -0.16742507 -0.13762476
0.08336216 -0.16792828 -0.13725899
0.08289015 -0.16747443 -0.13628204
0.08237258 -0.16691302 -0.13524471
0.081758134 -0.16612893 -0.1340757
0.081720866 -0.16662219 -0.13371718
0.08101104 -0.16561128 -0.13242263
0.08030084 -0.16458903 -0.13113315
0.08026425 -0.16507329 -0.13078117
0.07960051 -0.16414021 -0.12956421
0.07884397 -0.16298684 -0.12822486
0.07880807 -0.16346206 -0.12787944
0.078049675 -0.1622875 -0.1265466
0.07729337 -0.16110632 -0.12522265
0.07662911 -0.16012542 -0.12402976
0.076594256 -0.16058676 -0.12369444
0.07588742 -0.1594924 -0.122452
0.075274244 -0.158605 -0.12134125
0.07524002 -0.15905792 -0.12101204
0.074632145 -0.15816915 -0.11991567
0.07416574 -0.15760331 -0.11901274
0.07413203 -0.15804945 -0.118688464
0.073669 -0.15748127 -0.11779548
0.07329946 -0.15712792 -0.117029585
0.07297926 -0.15688653 -0.11633145
0.07294609 -0.15732557 -0.116012335
0.07267418 -0.15719298 -0.11538102
0.072402485 -0.1570571 -0.114752
0.07236955 -0.1574929 -0.11443523
0.07219106 -0.1575767 -0.11392995
0.07192255 -0.15743972 -0.113309726
0.07188982 -0.15787295 -0.112994835
0.0716679 -0.15784413 -0.112437375
0.07144618 -0.15781273 -0.11188176
0.071223475 -0.15777586 -0.11132653
0.071191035 -0.15820526 -0.11101443
0.07101484 -0.1582789 -0.110520475
0.070747495 -0.15812394 -0.10991285
0.07071525 -0.15855075 -0.109602615
0.07053952 -0.15861903 -0.109112725
0.070318915 -0.15857247 -0.108568065
0.07028684 -0.15899701 -0.10825948
0.07001802 -0.15882427 -0.107657515
0.06979798 -0.15877108 -0.10711782
0.06957578 -0.15870938 -0.10657709
0.06954402 -0.15912975 -0.10627155
0.0692773 -0.15894966 -0.1056789
0.06905683 -0.1588843 -0.10514461
0.06902529 -0.15930177 -0.10484117
0.06880645 -0.15923598 -0.10431131
0.06858525 -0.15916102 -0.1037802
0.068553895 -0.15957588 -0.103478655
0.06833423 -0.15950026 -0.10295187
0.0681147 -0.1594219 -0.102426894
0.06784689 -0.1592139 -0.101846255
0.067815855 -0.15962459 -0.10154774
0.06754995 -0.15941581 -0.100972444
0.06728579 -0.15920776 -0.10040126
0.067255005 -0.15961522 -0.10010509
0.06708047 -0.15964 -0.0996414
0.06677381 -0.15930957 -0.09902561
0.06674324 -0.15971416 -0.098731525
0.06652038 -0.15960206 -0.09821591
0.06625836 -0.15938123 -0.097657055
0.066083446 -0.15939203 -0.097199805
0.06605317 -0.1597927 -0.09690858
0.06579833 -0.1595825 -0.09636258
0.06575135 -0.15993573 -0.09605347
0.06572121 -0.16033475 -0.095763445
0.06552014 -0.16026454 -0.0952818
0.06531313 -0.16017514 -0.09479504
0.065283164 -0.16057175 -0.09450676
0.065130904 -0.16062954 -0.094083
0.065092415 -0.16100146 -0.093785875
0.064945884 -0.1610721 -0.09337009
0.06491605 -0.16146699 -0.09308306
0.06429994 -0.1602181 -0.092157
0.06451416 -0.16129442 -0.09213752
0.06448451 -0.16168693 -0.09185222
0.40918782 -0.31015867 -0.91074574
0.40900302 -0.3126047 -0.90896785
0.3551664 -0.2731765 -0.7898894
0.34735644 -0.26927507 -0.7716504
0.34100452 -0.26643148 -0.75664175
0.34085083 -0.2684656 -0.75516325
0.3345027 -0.2655047 -0.7402267
0.32803848 -0.262369 -0.725081
0.32789057 -0.26432663 -0.72365814
0.3218727 -0.26143652 -0.7095428
0.31603938 -0.25862363 -0.6958664
0.31589684 -0.26051053 -0.6944949
0.3109651 -0.25834867 -0.68281764
0.30678844 -0.25676757 -0.67279565
0.30240047 -0.25495237 -0.6623485
0.30226398 -0.25675905 -0.6610353
0.29854023 -0.2554394 -0.65205246
0.2965964 -0.2556356 -0.64689386
0.2964624 -0.25740916 -0.6456047
0.2918931 -0.25523 -0.63487905
0.26296505 -0.23112439 -0.572443
0.26284647 -0.23269348 -0.5713025
0.20080245 -0.17785418 -0.439056
0.1834479 -0.16320159 -0.4017007
0.17759521 -0.15895009 -0.38873693
0.17751619 -0.1599959 -0.38797677
0.17373767 -0.15757424 -0.37943596
0.17033038 -0.15545404 -0.37170053
0.17025463 -0.15645647 -0.3709719
0.16844705 -0.1558013 -0.3666191
0.16639215 -0.1548848 -0.3617619
0.16631815 -0.15586431 -0.36104995
0.16476342 -0.1553971 -0.35725504
0.16323125 -0.15493235 -0.35351738
0.1620109 -0.15475705 -0.35043713
0.1619388 -0.15571123 -0.34974357
0.16072048 -0.15551502 -0.3466797
0.15960896 -0.15541139 -0.34384435
0.15953788 -0.15635204 -0.34316063
0.15822133 -0.15601768 -0.33991456
0.157213 -0.15598424 -0.33731034
0.15714295 -0.15691133 -0.33663648
0.15593424 -0.15664989 -0.33363214
0.15472363 -0.15637118 -0.33063203
0.15372013 -0.1562961 -0.32806244
0.15365158 -0.1572032 -0.32740313
0.15254714 -0.15700117 -0.3246384
0.15144496 -0.15678766 -0.32188568
0.1513774 -0.15768187 -0.32123572
0.15037878 -0.1575604 -0.31870344
0.14938101 -0.1574273 -0.31617957
0.14931433 -0.15830988 -0.31553805
0.14821589 -0.158046 -0.31282175
0.14722036 -0.15788321 -0.3103194
0.14622699 -0.15771025 -0.3078281
0.14616168 -0.15857479 -0.30719972
0.14516835 -0.158383 -0.30471852
0.14417724 -0.15818112 -0.30224842
0.1441128 -0.15903406 -0.30162847
0.14312303 -0.1588148 -0.2991711
0.1421328 -0.15858242 -0.29671946
0.14134786 -0.15857804 -0.2946807
0.14128463 -0.15941484 -0.29407248
0.14050065 -0.15939683 -0.29204345
0.1395132 -0.1591262 -0.28961933
0.13945076 -0.15995269 -0.2890186
0.13856564 -0.15978657 -0.28680518
0.1377871 -0.15973845 -0.28480625
0.13772538 -0.16055524 -0.28421256
0.13714632 -0.16073714 -0.28261036
0.1367692 -0.16116117 -0.28140485
0.13647057 -0.16167821 -0.28035408
0.13640936 -0.16248827 -0.27976528
0.13568442 -0.16246548 -0.2778923
0.13512473 -0.16264203 -0.2763433
0.13506408 -0.16344474 -0.27575985
0.13319619 -0.16194236 -0.27169967
0.109888986 -0.13292053 -0.22648689
0.109840296 -0.1335649 -0.22601852
0.103069395 -0.12549527 -0.21269225
0.10128511 -0.123831 -0.20893526
0.100583136 -0.123560615 -0.20725335
0.100538805 -0.12414731 -0.20682693
0.100283355 -0.124454446 -0.20599978
0.09999518 -0.12471506 -0.2051122
0.09995107 -0.12529886 -0.20468786
0.09980738 -0.12574874 -0.20407563
0.099723086 -0.12627749 -0.20357597
0.09967904 -0.12686041 -0.20315228
0.0998786 -0.12777613 -0.20318554
0.09998371 -0.12856555 -0.20304014
0.100088775 -0.12935701 -0.20289357
0.100044474 -0.12994339 -0.20246737
0.10005803 -0.1306104 -0.20214882
0.100064814 -0.13126877 -0.2018173
0.10002045 -0.13185583 -0.2013906
0.09998917 -0.13246138 -0.20098805
0.10016396 -0.13336025 -0.20096582
0.10011949 -0.13394879 -0.20053804
0.100480914 -0.13512042 -0.20085643
0.10094475 -0.13644566 -0.20135969
0.10124207 -0.13753651 -0.20155421
0.101197 -0.13813308 -0.20112059
0.10170099 -0.139534 -0.2016881
0.10265157 -0.14160012 -0.20306405
0.10260575 -0.14220658 -0.20262323
0.10418881 -0.14523402 -0.20513393
0.105957426 -0.1485618 -0.20796783
0.10590993 -0.14919035 -0.20751098
0.10786146 -0.1528328 -0.21065362
0.109690696 -0.1563186 -0.21356136
0.1115167 -0.15982638 -0.21644902
0.11146642 -0.16049185 -0.21596532
0.11260161 -0.16297863 -0.21759818
0.112996414 -0.1643396 -0.21790294
0.11294534 -0.16501558 -0.21741162
0.113097735 -0.16600855 -0.21728127
0.11265497 -0.1660729 -0.21609579
0.11260399 -0.16674766 -0.21560533
0.11187022 -0.16634394 -0.21391147
0.110752754 -0.16532148 -0.21154803
0.110308334 -0.16535644 -0.21037386
0.11025839 -0.16601737 -0.20989347
0.10928069 -0.16518599 -0.2077921
0.108491525 -0.16464579 -0.20602657
0.1084424 -0.16529593 -0.20555401
0.1076515 -0.16473678 -0.20379399
0.10666566 -0.16384766 -0.20170213
0.10661737 -0.16448691 -0.20123747
0.10572504 -0.1637318 -0.19931768
0.10497947 -0.16320787 -0.19765684
0.104184434 -0.16259134 -0.19591655
0.10413726 -0.16321577 -0.19546267
0.10339169 -0.16266601 -0.19381559
0.10254979 -0.16194332 -0.19200969
0.102503344 -0.16255805 -0.19156286
0.10171118 -0.16190262 -0.18985064
0.100920856 -0.16123937 -0.18814737
0.10087515 -0.16184442 -0.18770759
0.100039594 -0.16108674 -0.1859368
0.09925183 -0.16040015 -0.18425249
0.09846583 -0.15970577 -0.18257698
0.09842123 -0.16029601 -0.18214796
0.09768492 -0.15967235 -0.1805641
0.09690266 -0.15895753 -0.17890915
0.09685877 -0.15953843 -0.17848691
0.09617362 -0.15897977 -0.17700166
0.09549091 -0.15841594 -0.17552543
0.09495505 -0.15810578 -0.17429654
0.09491204 -0.15867507 -0.17388275
0.094280735 -0.15818149 -0.17250298
0.093794584 -0.15794247 -0.17136562
0.09375208 -0.15850501 -0.17095673
0.09321951 -0.15817116 -0.16974896
0.09273574 -0.1579196 -0.16862442
0.092693694 -0.15847602 -0.16821998
0.092258915 -0.15830532 -0.16717999
0.09182508 -0.15813044 -0.16614465
0.09139217 -0.15795141 -0.1651139
0.09135071 -0.15850013 -0.16471507
0.090917744 -0.15831219 -0.16368893
0.090534694 -0.15821266 -0.16274567
0.090493605 -0.15875654 -0.16235034
0.090158835 -0.15874122 -0.16148798
0.08987327 -0.15881555 -0.16070601
0.08983244 -0.15935588 -0.16031328
0.08954782 -0.15942644 -0.15953572
0.08926344 -0.15949382 -0.15876053
0.08902755 -0.15965168 -0.15806344
0.08898707 -0.16018748 -0.15767398
0.08875148 -0.16034147 -0.15697971
0.08856482 -0.16058864 -0.15636325
0.088524505 -0.16112219 -0.15597543
0.08828998 -0.16127124 -0.15528655
0.08805443 -0.1614153 -0.15459765
0.08801432 -0.16194627 -0.15421171
0.08782767 -0.16218379 -0.15360038
0.087593816 -0.16232419 -0.15291786
0.08736021 -0.16246207 -0.15223727
0.08732036 -0.16298953 -0.1518539
0.0870857 -0.16312085 -0.15117407
0.08689975 -0.16334859 -0.15056975
0.08686007 -0.16387376 -0.15018803
0.08662653 -0.1640003 -0.14951366
0.086392514 -0.16412282 -0.14884016
0.086353034 -0.16464542 -0.14846031
0.086119965 -0.16476546 -0.14779061
0.08588637 -0.16488136 -0.14712171
0.08570199 -0.16509742 -0.1465277
0.085662775 -0.16561644 -0.14615044
0.08547788 -0.16582803 -0.14555743
0.08524557 -0.16593693 -0.1448956
0.08520653 -0.16645369 -0.14452
0.08497371 -0.16655701 -0.14385982
0.084692866 -0.16655447 -0.1431309
0.08465404 -0.16706832 -0.1427574
0.08442248 -0.1671664 -0.14210322
0.084142946 -0.16715765 -0.141381
0.08386266 -0.16714351 -0.1406597
0.08382418 -0.16765285 -0.14028949
0.083498955 -0.16753468 -0.13950647
0.08321926 -0.16751201 -0.13879119
0.08318104 -0.16801779 -0.13842358
0.08276192 -0.1676811 -0.13751233
0.08229337 -0.16722867 -0.13653392
0.082255565 -0.167729 -0.13617025
0.08174206 -0.16716594 -0.13513364
0.0811325 -0.1663799 -0.1339655
0.08042804 -0.1653712 -0.13266867
0.08039111 -0.16585997 -0.13231342
0.07968663 -0.16483541 -0.13102497
0.0790279 -0.16390441 -0.12980588
0.07899163 -0.16438447 -0.12945695
0.07824121 -0.16322862 -0.12811868
0.0774886 -0.16205645 -0.1267834
0.07745306 -0.16252683 -0.12644151
0.07670289 -0.16134319 -0.12511863
0.076043986 -0.16036014 -0.12392668
0.07534255 -0.15926802 -0.12268196
0.07530803 -0.15972482 -0.12234993
0.0746998 -0.15883544 -0.12124005
0.07409651 -0.15794857 -0.12014173
0.07406258 -0.15839763 -0.119815335
0.073599875 -0.1578303 -0.118913054
0.07314029 -0.15726355 -0.11801862
0.0731068 -0.1577068 -0.11769644
0.072740145 -0.15735228 -0.11693105
0.07242239 -0.1571099 -0.11623336
0.072152406 -0.15697812 -0.11560123
0.072119355 -0.15741554 -0.11528328
0.07184971 -0.15727884 -0.11465463
0.071672395 -0.15736309 -0.114148855
0.07163954 -0.15779792 -0.113832794
0.07137305 -0.15766014 -0.11321293
0.07115267 -0.15763195 -0.11265483
0.07112004 -0.1580639 -0.11234086
0.07089993 -0.15803185 -0.111785546
0.07067887 -0.15799433 -0.11123059
0.07050383 -0.15806846 -0.11073615
0.070471466 -0.15849687 -0.11042476
0.07020615 -0.1583411 -0.10981748
0.07003158 -0.15840986 -0.10932709
0.06999941 -0.15883568 -0.10901758
0.06978043 -0.15878847 -0.108473204
0.069513544 -0.15861651 -0.10787043
0.06929503 -0.15856396 -0.10733009
0.06926317 -0.15898561 -0.107023604
0.06904261 -0.15892327 -0.10648316
0.06877781 -0.15874395 -0.105889715
0.068746164 -0.15916272 -0.10558534
0.06852734 -0.1590967 -0.10505134
0.06831002 -0.15903154 -0.10452082
0.06827858 -0.15944773 -0.10421831
0.06805902 -0.15937209 -0.10368751
0.06784089 -0.1592971 -0.10316008
0.06762289 -0.15921937 -0.10263445
0.06759174 -0.15963167 -0.102334775
0.06732599 -0.15942286 -0.10175449
0.067062005 -0.15921487 -0.101178385
0.0670311 -0.15962394 -0.100881055
0.06676897 -0.15941507 -0.100310214
0.066595614 -0.15944032 -0.09984603
0.0665649 -0.1598468 -0.09955058
0.06626065 -0.15951543 -0.09893521
0.06603937 -0.15940396 -0.098418914
0.065779254 -0.15918393 -0.09785926
0.0657489 -0.1595856 -0.097567305
0.06557525 -0.15959589 -0.09711029
0.06532225 -0.15938644 -0.09656351
0.06529209 -0.15978557 -0.09627341
0.06524527 -0.16013874 -0.09596432
0.06504561 -0.16006911 -0.09548207
0.06501555 -0.16046695 -0.09519291
0.0648101 -0.16037694 -0.09470642
0.064658836 -0.16043514 -0.09428223
0.06462043 -0.16080709 -0.09398507
0.06459053 -0.16120279 -0.093697466
0.064445026 -0.16127302 -0.09328186
0.063833766 -0.16002613 -0.09235375
0.06380424 -0.16041696 -0.09206967
0.06401631 -0.1614941 -0.09204982
0.37929004 -0.29059178 -0.85101104
0.35186318 -0.27152792 -0.78924423
0.35170346 -0.27364177 -0.7877078
0.34463912 -0.2702581 -0.7709911
0.33818826 -0.26727673 -0.7556687
0.33188432 -0.2643321 -0.7407118
0.3317336 -0.26632687 -0.73926187
0.3253458 -0.2631926 -0.72418565
0.3193454 -0.26029772 -0.70999753
0.31920034 -0.26221797 -0.7086018
0.3134114 -0.259386 -0.6949345
0.3086901 -0.25738585 -0.68362397
0.3043327 -0.25563675 -0.673134
0.30419436 -0.25746784 -0.6718031
0.29979458 -0.25559863 -0.6612657
0.2964503 -0.25459668 -0.65303457
0.29631543 -0.25638157 -0.6517372
0.29444012 -0.25662073 -0.646698
0.28809583 -0.2528384 -0.6320785
0.2879647 -0.25457403 -0.63081694
0.25673443 -0.22807252 -0.5630202
0.18771127 -0.16659328 -0.414718
0.18103056 -0.16163175 -0.39984086
0.18094939 -0.16270614 -0.39905992
0.17562856 -0.15888391 -0.38714263
0.17182572 -0.15642068 -0.37848315
0.17174876 -0.15743935 -0.3777427
0.16885175 -0.1557663 -0.37103838
0.16716525 -0.15521914 -0.36690968
0.16709036 -0.15621024 -0.3661893
0.16504993 -0.15528584 -0.3613329
0.16360624 -0.15492068 -0.357744
0.16218565 -0.15456 -0.35421327
0.16211298 -0.15552191 -0.3535141
0.16080073 -0.15524262 -0.35022414
0.1596924 -0.15515223 -0.3473685
0.1596208 -0.15609995 -0.34667966
0.15841587 -0.15588996 -0.34363416
0.15721014 -0.15566388 -0.3405951
0.1571396 -0.15659742 -0.33991656
0.15603702 -0.15645581 -0.33710298
0.15483679 -0.1561979 -0.33409518
0.15373623 -0.1560299 -0.33130094
0.15366721 -0.15694344 -0.33063695
0.15256955 -0.15675758 -0.3278597
0.15147412 -0.15656015 -0.32509443
0.15140608 -0.15746081 -0.3244398
0.1504122 -0.15735309 -0.32189313
0.14931908 -0.15712398 -0.31915066
0.14925195 -0.15801238 -0.31850493
0.14826158 -0.15787634 -0.3159824
0.14727333 -0.15773009 -0.31347084
0.14628468 -0.1575708 -0.31096515
0.14621888 -0.15844178 -0.31033206
0.14523284 -0.15826656 -0.30784166
0.1441454 -0.15796274 -0.30515358
0.14408052 -0.15882146 -0.3045294
0.1431977 -0.1587335 -0.30226323
0.14211392 -0.15840028 -0.2996003
0.14204991 -0.15924741 -0.29898456
0.14116786 -0.15913086 -0.2967355
0.1402879 -0.15900548 -0.29449657
0.13960849 -0.15910786 -0.29266253
0.13954554 -0.15994078 -0.29205713
0.13846645 -0.15954855 -0.28943768
0.13758938 -0.15938725 -0.28722537
0.13752733 -0.16020857 -0.28662837
0.13695681 -0.1604063 -0.2850292
0.13658477 -0.16084178 -0.28382424
0.1365231 -0.1616579 -0.28323102
0.1358545 -0.16171704 -0.2814482
0.13573067 -0.162451 -0.28073564
0.13634968 -0.16412088 -0.28147402
0.136288 -0.1649371 -0.28088075
0.13419156 -0.16315879 -0.27632925
0.1165216 -0.141386 -0.24155533
0.116469376 -0.14207718 -0.24105296
0.10171382 -0.123712376 -0.21211134
0.09809345 -0.11965127 -0.2047751
0.09805002 -0.12022599 -0.20435736
0.09788538 -0.12064104 -0.20370649
0.09745242 -0.12069912 -0.20254152
0.09776453 -0.12174351 -0.20280679
0.09772118 -0.12231723 -0.20238978
0.09748893 -0.122636855 -0.2016123
0.09744591 -0.12320969 -0.20119663
0.097402655 -0.12378222 -0.20078048
0.09741119 -0.12442549 -0.2004626
0.09767026 -0.12541358 -0.20061867
0.09762683 -0.12598838 -0.20020087
0.09764688 -0.12665124 -0.19990279
0.09780158 -0.12750278 -0.19985767
0.09786153 -0.12822434 -0.19963306
0.09781792 -0.12880147 -0.19921358
0.09791851 -0.12958276 -0.19906385
0.09787971 -0.13016775 -0.19865279
0.09783603 -0.13074584 -0.19823262
0.097795986 -0.13132915 -0.19781919
0.09790247 -0.13212416 -0.19767763
0.09785871 -0.13270323 -0.19725673
0.097782716 -0.13323528 -0.19677626
0.0979425 -0.13411248 -0.19673087
0.09798101 -0.13481395 -0.19646072
0.09793714 -0.13539466 -0.19603863
0.098306924 -0.13659064 -0.19637479
0.09890545 -0.13813446 -0.19712622
0.09886106 -0.13872199 -0.19669917
0.09977794 -0.14076002 -0.19802316
0.100632414 -0.14271732 -0.1992264
0.10180882 -0.14517798 -0.20100671
0.10176292 -0.14578544 -0.20056517
0.10346665 -0.14908348 -0.20328403
0.105355866 -0.15269345 -0.20632382
0.10530817 -0.1533248 -0.20586492
0.107242696 -0.1570475 -0.20896381
0.10876072 -0.1601464 -0.21130154
0.10871128 -0.16080078 -0.21082589
0.10990708 -0.16342425 -0.21257092
0.110493414 -0.16509768 -0.21322183
0.11022427 -0.16541515 -0.21234886
0.110174015 -0.16608031 -0.2118654
0.10956559 -0.16584657 -0.21039511
0.109027915 -0.16571915 -0.20905396
0.108978175 -0.1663775 -0.20857544
0.10805317 -0.1656071 -0.2065597
0.10721542 -0.16496693 -0.20470364
0.1071665 -0.16561444 -0.20423299
0.10614428 -0.16465175 -0.20206429
0.105066195 -0.1635819 -0.19980589
0.10427568 -0.16297692 -0.19805498
0.10422811 -0.16360651 -0.19759737
0.103343844 -0.16282721 -0.19569302
0.10260236 -0.16227707 -0.19404154
0.10255555 -0.16289665 -0.1935912
0.10167213 -0.16208896 -0.19170411
0.10088358 -0.16143146 -0.18998611
0.10083755 -0.1620407 -0.18954329
0.10000533 -0.16129121 -0.18775955
0.0991732 -0.16053025 -0.18598214
0.09834331 -0.15976149 -0.18421467
0.09829845 -0.16035523 -0.18378311
0.097518876 -0.1596574 -0.18210995
0.096836045 -0.15911941 -0.18060566
0.09679186 -0.15970413 -0.18018067
0.09601528 -0.15898496 -0.17852664
0.095384344 -0.15851524 -0.17712227
0.095340826 -0.15909128 -0.17670357
0.09461606 -0.15843919 -0.17514978
0.09403659 -0.15803993 -0.17384292
0.09350568 -0.1577209 -0.17262086
0.093463 -0.15828568 -0.17221034
0.09288719 -0.15787335 -0.17091997
0.09235801 -0.15753877 -0.1697106
0.092315845 -0.15809682 -0.169305
0.09188401 -0.15793188 -0.16826096
0.091549896 -0.15794311 -0.16737977
0.091508076 -0.15849666 -0.16697742
0.09112694 -0.15841295 -0.16602324
0.09069673 -0.15823156 -0.16499214
0.09026746 -0.15804608 -0.1639657
0.090226196 -0.15859221 -0.16356874
0.089892864 -0.15858097 -0.16270146
0.08956039 -0.15856695 -0.16183789
0.08951942 -0.1591092 -0.16144376
0.08918794 -0.15909047 -0.16058531
0.088905245 -0.15916187 -0.15980697
0.08886454 -0.15970057 -0.15941541
0.08858164 -0.15976602 -0.15863967
0.08830012 -0.15983048 -0.15786809
0.08811389 -0.16007891 -0.15724882
0.08807351 -0.16061345 -0.15686029
0.087888084 -0.16086014 -0.15624407
0.0876551 -0.16100982 -0.15555456
0.08761488 -0.1615421 -0.15516767
0.08738159 -0.16168672 -0.15448001
0.087196104 -0.16192473 -0.15386821
0.08715606 -0.16245475 -0.15348297
0.086923234 -0.16259325 -0.15279977
0.08669123 -0.16273046 -0.15211944
0.086506285 -0.16296096 -0.15151301
0.086466506 -0.16348743 -0.15113035
0.08623432 -0.1636172 -0.15045348
0.08600235 -0.1637444 -0.14977849
0.085962765 -0.1642683 -0.14939769
0.085778415 -0.16449031 -0.14879732
0.08554552 -0.1646085 -0.1481247
0.085506104 -0.16513011 -0.14774556
0.08527482 -0.16524714 -0.14707775
0.085090935 -0.16546153 -0.14648265
0.0849079 -0.16567542 -0.14589001
0.08486873 -0.16619381 -0.14551322
0.08463805 -0.16630238 -0.14485145
0.08435894 -0.16630399 -0.14411946
0.084319994 -0.16681947 -0.14374478
0.0840898 -0.16692121 -0.14308791
0.08385894 -0.16701852 -0.14243168
0.0835813 -0.16701086 -0.14170839
0.08354267 -0.16752213 -0.14133677
0.08331121 -0.16761015 -0.14068383
0.08294241 -0.16739267 -0.13983274
0.08290405 -0.16790041 -0.1394637
0.08267303 -0.16798073 -0.13881601
0.08225684 -0.16764578 -0.1379029
0.08221877 -0.16814964 -0.13753667
0.08175386 -0.1676964 -0.13655844
0.08119664 -0.16702873 -0.13545187
0.08059167 -0.16624494 -0.13428158
0.08055437 -0.16673851 -0.13392282
0.0798556 -0.16572788 -0.13262679
0.079201244 -0.16480806 -0.13139908
0.07916461 -0.16529295 -0.13104664
0.07841767 -0.16414559 -0.12969676
0.07762707 -0.16288617 -0.12829174
0.07759119 -0.16336107 -0.12794656
0.07684468 -0.1621859 -0.12661248
0.076053016 -0.16089417 -0.1252218
0.07539766 -0.15990894 -0.124026075
0.07536285 -0.1603696 -0.12369124
0.07462151 -0.159167 -0.12238522
0.07406515 -0.15838997 -0.1213387
0.07403098 -0.15884224 -0.12100997
0.07338697 -0.15784413 -0.11985079
0.07297083 -0.15737996 -0.11900614
0.07293717 -0.15782543 -0.11868235
0.07248272 -0.1572599 -0.11779092
0.07216454 -0.1570161 -0.11708636
0.07180348 -0.15666392 -0.11632676
0.07177036 -0.15710232 -0.11600812
0.071501225 -0.15696602 -0.11537517
0.07128054 -0.15694425 -0.11480855
0.07124764 -0.15737972 -0.11449204
0.07102844 -0.15735699 -0.11392981
0.070808224 -0.15732874 -0.113367856
0.07077552 -0.15776163 -0.1130532
0.0706024 -0.15784577 -0.11255519
0.07038501 -0.15781726 -0.11200077
0.070119895 -0.1576664 -0.11138605
0.07008748 -0.15809546 -0.11107419
0.06991379 -0.15816897 -0.110580295
0.06974249 -0.1582462 -0.11009072
0.069710225 -0.15867333 -0.10978026
0.06949144 -0.1586264 -0.10923191
0.06922739 -0.15846102 -0.10862767
0.06919534 -0.15888526 -0.10831931
0.068978235 -0.1588346 -0.10777737
0.06871484 -0.15866168 -0.10717881
0.068541184 -0.15871674 -0.10669477
0.06850942 -0.1591371 -0.10638923
0.06824664 -0.15895693 -0.10579612
0.068029396 -0.15889168 -0.10526152
0.06799786 -0.15930915 -0.10495808
0.06778088 -0.15923996 -0.10442627
0.067564085 -0.15916815 -0.10389631
0.06753273 -0.15958303 -0.10359475
0.0673176 -0.15951097 -0.10306926
0.06705373 -0.15930635 -0.102486245
0.066837594 -0.15922505 -0.10196303
0.06680656 -0.15963574 -0.101664506
0.066589355 -0.15954694 -0.10114246
0.06628457 -0.1592193 -0.1005173
0.066253774 -0.15962677 -0.10022112
0.06608178 -0.15965183 -0.09975727
0.06578006 -0.15932213 -0.09914126
0.06574949 -0.15972674 -0.09884717
0.06557612 -0.159741 -0.09838545
0.06531609 -0.15951525 -0.09782367
0.06510023 -0.1594071 -0.09731539
0.06506996 -0.15980779 -0.09702415
0.06482005 -0.15960069 -0.096479006
0.064773194 -0.15995349 -0.09616965
0.06474304 -0.16035253 -0.09587961
0.064587355 -0.16040093 -0.09544613
0.06438905 -0.16032787 -0.0949653
0.06435906 -0.16072483 -0.094676755
0.064166926 -0.16066483 -0.09420517
0.06409186 -0.160933 -0.093866676
0.06395825 -0.16103439 -0.09346302
0.063928425 -0.16142917 -0.09317608
0.0632818 -0.1600645 -0.09220394
0.06346108 -0.16105229 -0.092151135
0.06343147 -0.16144419 -0.091866285
0.48122466 -0.36793673 -1.0870012
0.36510032 -0.28053293 -0.82660407
0.3649333 -0.28274333 -0.8249974
0.3487119 -0.27223086 -0.78772765
0.34194097 -0.2690589 -0.77152956
0.33554536 -0.26610237 -0.7562085
0.33539188 -0.26813367 -0.754732
0.3291281 -0.26516187 -0.73976696
0.32278484 -0.26204386 -0.7246692
0.32263714 -0.2639988 -0.72324824
0.31668073 -0.26108256 -0.70906514
0.31075558 -0.25811595 -0.6949911
0.31061333 -0.25999886 -0.6936225
0.3060779 -0.25811043 -0.6826478
0.30177444 -0.2563644 -0.6722102
0.2973367 -0.25444606 -0.6615091
0.29720047 -0.25624892 -0.6601987
0.29370335 -0.25507733 -0.6515864
0.29154938 -0.25505862 -0.6459111
0.29141572 -0.25682795 -0.64462507
0.2819469 -0.25014895 -0.62315595
0.24295995 -0.21643461 -0.53803647
0.24284902 -0.21790287 -0.53696924
0.18578021 -0.16668305 -0.41335776
0.17825927 -0.16086593 -0.3965752
0.17353864 -0.1575771 -0.38585034
0.17346032 -0.15861365 -0.38509694
0.17016482 -0.15658788 -0.37746724
0.16746323 -0.15508823 -0.37112772
0.16738768 -0.15608817 -0.37040094
0.16571485 -0.15553549 -0.36627716
0.16387999 -0.1548027 -0.36182073
0.16380602 -0.15578157 -0.36110926
0.16227621 -0.15531585 -0.35731712
0.16086558 -0.15494952 -0.35378712
0.15966462 -0.15477598 -0.35070887
0.15959251 -0.15573019 -0.3500153
0.15849218 -0.15563628 -0.34716064
0.1572939 -0.15542792 -0.34410778
0.15722282 -0.15636857 -0.34342408
0.1560276 -0.15614045 -0.34038973
0.15493262 -0.15600193 -0.33757272
0.15486257 -0.15692903 -0.33689886
0.15366986 -0.15666597 -0.3338896
0.1525775 -0.15649466 -0.3310968
0.15148886 -0.15631339 -0.32831904
0.15142031 -0.15722048 -0.32765973
0.15043247 -0.15712787 -0.32510123
0.14924544 -0.15680476 -0.32213867
0.14917788 -0.15769896 -0.3214887
0.14819354 -0.15757738 -0.31895477
0.14721008 -0.1574442 -0.3164293
0.14714338 -0.15832679 -0.31578776
0.14616124 -0.15817617 -0.31327495
0.14518128 -0.15801543 -0.31077322
0.14420088 -0.1578416 -0.30827728
0.1441355 -0.15870678 -0.30764842
0.14315775 -0.15851705 -0.3051678
0.14218216 -0.15831724 -0.30269825
0.14211766 -0.15917084 -0.3020778
0.14114341 -0.15895365 -0.2996209
0.14016755 -0.15872198 -0.29716742
0.13939378 -0.1587183 -0.2951271
0.13933049 -0.15955578 -0.29451838
0.13855487 -0.15953504 -0.2924821
0.13748388 -0.15914652 -0.2898603
0.13742144 -0.15997303 -0.28925955
0.13665076 -0.15993148 -0.28724733
0.13628437 -0.1603784 -0.2860446
0.1362224 -0.16119844 -0.28544855
0.13595282 -0.16175964 -0.28444102
0.13519345 -0.16170394 -0.2824661
0.13455561 -0.16179168 -0.28073633
0.13449436 -0.16260223 -0.2801472
0.13472772 -0.1637883 -0.28013754
0.13031793 -0.1590275 -0.2710094
0.13025865 -0.15981206 -0.27043915
0.10249917 -0.12470401 -0.21568832
0.09855681 -0.12023444 -0.20764028
0.09851285 -0.120816246 -0.20721738
0.09690125 -0.1193336 -0.20374574
0.09711586 -0.12024667 -0.20383058
0.096679255 -0.1202966 -0.20265192
0.096636124 -0.12086747 -0.20223698
0.09647559 -0.12128039 -0.20159546
0.09633073 -0.12171287 -0.20098506
0.096287705 -0.122282326 -0.20057115
0.09605415 -0.122591406 -0.19979167
0.09606369 -0.12323171 -0.19947913
0.09602073 -0.12380027 -0.19906586
0.09603536 -0.124448754 -0.19876243
0.09609586 -0.12516208 -0.19854592
0.09625461 -0.12601462 -0.19851525
0.09621147 -0.12658554 -0.19810028
0.096368395 -0.12743983 -0.19806388
0.09656689 -0.12835617 -0.19810449
0.09652354 -0.12892994 -0.19768743
0.096583016 -0.12965158 -0.1974638
0.09673448 -0.13050765 -0.19741207
0.09669098 -0.13108335 -0.19699362
0.096843414 -0.13194504 -0.19694148
0.09704548 -0.13288233 -0.19698043
0.09720207 -0.13375615 -0.19693285
0.09715826 -0.13433602 -0.19651137
0.09717265 -0.13500252 -0.19619784
0.097237565 -0.13574544 -0.19597735
0.09719367 -0.13632639 -0.19555508
0.09735453 -0.13721657 -0.19551015
0.09757261 -0.13819654 -0.19556886
0.09752849 -0.13878053 -0.19514439
0.09785674 -0.139935 -0.19540186
0.0983821 -0.14139831 -0.1960167
0.0991581 -0.14325756 -0.19708425
0.09911311 -0.14385305 -0.1966514
0.10011709 -0.14608617 -0.19812346
0.10153937 -0.14899075 -0.20034549
0.10149314 -0.1496027 -0.1999007
0.10306797 -0.152781 -0.20238096
0.104548536 -0.1558331 -0.20467894
0.10450074 -0.15646565 -0.20421916
0.10581163 -0.15927908 -0.20619524
0.10652979 -0.16115668 -0.2071004
0.10697236 -0.16259919 -0.2075077
0.10692327 -0.1632489 -0.20703545
0.106845066 -0.16385101 -0.20651148
0.1062571 -0.16361569 -0.20508374
0.106208295 -0.16426165 -0.20461422
0.10547723 -0.1637773 -0.2029401
0.104697764 -0.16320232 -0.20118609
0.10464966 -0.16383898 -0.20072332
0.10377822 -0.16309328 -0.19881654
0.10299583 -0.16248557 -0.19707206
0.10211725 -0.16170396 -0.19516538
0.10207033 -0.16232489 -0.19471405
0.10147333 -0.16200589 -0.1933066
0.10064577 -0.16128299 -0.19150361
0.10059952 -0.16189514 -0.19105867
0.09981673 -0.16123228 -0.18934223
0.09903718 -0.16056399 -0.18763715
0.098991655 -0.16116643 -0.18719928
0.09811867 -0.16031782 -0.18534268
0.097390346 -0.15971157 -0.18374012
0.09661534 -0.15901251 -0.18206328
0.09657094 -0.15960011 -0.18163618
0.095798545 -0.15888922 -0.17997247
0.09507678 -0.15825808 -0.17840037
0.09503309 -0.15883635 -0.17798005
0.0943612 -0.15827996 -0.17650014
0.093689986 -0.15771529 -0.17502637
0.09316155 -0.15740119 -0.1737973
0.09311874 -0.15796788 -0.1733854
0.092594445 -0.15765038 -0.17216907
0.092166334 -0.15750289 -0.17111687
0.09212395 -0.1580638 -0.17070918
0.09150597 -0.15755455 -0.16934669
0.09117327 -0.15756911 -0.16846089
0.09113132 -0.15812425 -0.16805738
0.090752184 -0.15804477 -0.1670986
0.090420835 -0.15805046 -0.16622107
0.089994475 -0.15787145 -0.16519015
0.08995304 -0.15841985 -0.16479154
0.08962295 -0.1584161 -0.16392227
0.0892919 -0.15840615 -0.16305375
0.08925076 -0.15895069 -0.16265798
0.08887259 -0.15884283 -0.16171671
0.088543445 -0.15882507 -0.16085735
0.088502616 -0.15936542 -0.1604646
0.08822196 -0.15943597 -0.15968664
0.08794099 -0.15950222 -0.15891008
0.087661386 -0.15956749 -0.1581377
0.08762093 -0.16010298 -0.15774848
0.087435946 -0.16035093 -0.15712944
0.087204285 -0.16050346 -0.15643758
0.087164 -0.1610367 -0.15605
0.08698 -0.16128069 -0.15543567
0.08674886 -0.16142718 -0.15474832
0.08670875 -0.16195816 -0.15436237
0.08657108 -0.16229057 -0.15382373
0.086293206 -0.16233486 -0.15306696
0.08610926 -0.16256812 -0.15245841
0.08606938 -0.16309589 -0.15207481
0.085886285 -0.16332756 -0.15146935
0.085607916 -0.16335928 -0.1507179
0.085568234 -0.16388446 -0.15033618
0.08538555 -0.16411066 -0.14973469
0.08510773 -0.16413493 -0.14898862
0.08506824 -0.16465752 -0.14860877
0.08488395 -0.16487394 -0.14800818
0.0847011 -0.16509113 -0.14741102
0.084519036 -0.16530778 -0.14681624
0.08447977 -0.16582744 -0.14643851
0.08429722 -0.16603965 -0.14584477
0.08406877 -0.16615072 -0.1451832
0.084029675 -0.16666813 -0.14480713
0.083753414 -0.166671 -0.14407645
0.08352396 -0.16677204 -0.14341755
0.08348509 -0.16728653 -0.1430436
0.0833032 -0.16748735 -0.14245759
0.08302756 -0.16747953 -0.1417342
0.08279672 -0.1675669 -0.14107884
0.08275814 -0.16807751 -0.1407077
0.0823911 -0.16785723 -0.13985515
0.08216246 -0.16794078 -0.13920762
0.08212415 -0.16844785 -0.13883905
0.081712104 -0.16811433 -0.13792741
0.0812506 -0.16766317 -0.13694727
0.0812127 -0.16816479 -0.13658267
0.08065989 -0.16749592 -0.13547638
0.0800586 -0.16670816 -0.13430482
0.079363845 -0.16569743 -0.13300422
0.079326846 -0.16618714 -0.13264826
0.078586265 -0.16505483 -0.1312908
0.077890694 -0.16401534 -0.13000318
0.0778544 -0.1644957 -0.12965402
0.07706734 -0.1632271 -0.12824577
0.076234154 -0.16183855 -0.12677903
0.07619867 -0.16230826 -0.12643762
0.07541345 -0.16101322 -0.12504818
0.074719675 -0.15992202 -0.123792574
0.07398407 -0.15872099 -0.1224845
0.07394968 -0.15917617 -0.12215365
0.07339514 -0.15839012 -0.12110459
0.07280287 -0.15750523 -0.120008096
0.072769046 -0.157953 -0.11968264
0.07231251 -0.1573817 -0.118778996
0.07190688 -0.1569266 -0.11794841
0.07187346 -0.15736887 -0.11762695
0.07155915 -0.15712704 -0.116924904
0.07124634 -0.15688427 -0.11622732
0.07102574 -0.156863 -0.11565628
0.07099271 -0.15730008 -0.115338586
0.070728295 -0.15716605 -0.1147114
0.07050942 -0.15714099 -0.11414692
0.070476614 -0.15757518 -0.11383133
0.07026036 -0.15755203 -0.113272764
0.070042 -0.15752059 -0.11271299
0.07000939 -0.15795222 -0.112399265
0.069884025 -0.15815032 -0.11196389
0.0696209 -0.1579989 -0.11134928
0.06944945 -0.158076 -0.1108561
0.06941708 -0.1585044 -0.11054472
0.06920076 -0.15846354 -0.1099953
0.06902861 -0.1585327 -0.10950446
0.06899641 -0.15895884 -0.10919472
0.06869046 -0.15867981 -0.10853434
0.068473764 -0.15862691 -0.10799032
0.06825725 -0.15857136 -0.10744815
0.06822539 -0.15899302 -0.107141666
0.0679643 -0.15881655 -0.106545635
0.06774838 -0.15875445 -0.10600848
0.06771674 -0.15917322 -0.1057041
0.06750114 -0.15910737 -0.1051698
0.06728575 -0.15903892 -0.104637384
0.067254305 -0.15945512 -0.104334876
0.06703923 -0.15938288 -0.10380531
0.06682293 -0.1593043 -0.103275865
0.06660821 -0.15922685 -0.10275
0.06657706 -0.15963914 -0.10245032
0.06631819 -0.15943807 -0.1018731
0.06610257 -0.15935004 -0.10135044
0.066071644 -0.15975945 -0.101052865
0.06576786 -0.15942699 -0.10042642
0.06559865 -0.15945692 -0.09996401
0.06556793 -0.15986341 -0.09966855
0.065400615 -0.15989503 -0.09921026
0.065096915 -0.15954886 -0.09859127
0.06484158 -0.15933156 -0.09803194
0.06481121 -0.1597336 -0.09773973
0.064597815 -0.1596271 -0.09723268
0.064390294 -0.15953383 -0.09673415
0.06436011 -0.1599333 -0.09644379
0.06427121 -0.16016813 -0.096085295
0.06416307 -0.16034779 -0.0957051
0.06413296 -0.1607463 -0.095415436
0.063938566 -0.16067988 -0.0949374
0.063786805 -0.16073164 -0.09450954
0.06371909 -0.16102059 -0.09417839
0.06368915 -0.16141681 -0.093890406
0.06354444 -0.16148426 -0.09347291
0.06289444 -0.16009784 -0.09248854
0.0628649 -0.16048883 -0.09220435
0.06296142 -0.16124423 -0.0920607
0.47296318 -0.3628 -1.0777371
0.47274423 -0.36569798 -1.0756307
0.35731238 -0.27772638 -0.8149227
0.34561217 -0.2707312 -0.7874867
0.34545293 -0.27283856 -0.78595495
0.33915463 -0.269982 -0.7707077
0.33276027 -0.26696575 -0.75528926
0.32653072 -0.26400214 -0.7402812
0.3263802 -0.26599413 -0.73883337
0.32007945 -0.2628499 -0.72373104
0.3141911 -0.25997093 -0.7095859
0.3140462 -0.2618885 -0.7081921
0.30816248 -0.25889868 -0.6941176
0.3036388 -0.25700435 -0.68308383
0.2994875 -0.25537485 -0.672901
0.2993493 -0.25720382 -0.6715716
0.29456058 -0.25493172 -0.6600317
0.29112908 -0.25380322 -0.65149957
0.29099467 -0.2555823 -0.65020645
0.28922036 -0.2558822 -0.64533025
0.27353096 -0.24351552 -0.61011046
0.27340472 -0.24518642 -0.60889596
0.2105262 -0.18899006 -0.47123465
0.18317658 -0.16495046 -0.41114524
0.17601357 -0.15943058 -0.39499927
0.17593352 -0.16049 -0.39422923
0.17168102 -0.15758917 -0.38444594
0.1688609 -0.1560011 -0.37778145
0.16878416 -0.1570169 -0.37704313
0.1662575 -0.1556576 -0.3710387
0.16453603 -0.15505114 -0.36677969
0.16446124 -0.15604106 -0.36606017
0.16254799 -0.15521121 -0.36140862
0.16102375 -0.15474404 -0.35760078
0.15972354 -0.15448193 -0.35428092
0.1596509 -0.15544327 -0.35358217
0.15845627 -0.15526344 -0.3504998
0.15736346 -0.15517253 -0.34764144
0.15729184 -0.15612027 -0.3469526
0.15610246 -0.15590821 -0.34390107
0.15491405 -0.15568188 -0.34085974
0.15484351 -0.15661544 -0.34018117
0.1537582 -0.15647517 -0.3373687
0.15267244 -0.15632051 -0.3345626
0.15158914 -0.15615451 -0.33176902
0.15152006 -0.1570687 -0.33110455
0.15043956 -0.15688483 -0.32832783
0.14935866 -0.15668654 -0.3255576
0.14929056 -0.15758783 -0.32490247
0.14821239 -0.15737161 -0.32214895
0.14713514 -0.15714245 -0.31940472
0.14706802 -0.15803085 -0.318759
0.14619158 -0.15800704 -0.31644073
0.14521632 -0.15785994 -0.31392455
0.14414367 -0.15758911 -0.31121445
0.14407787 -0.1584601 -0.31058136
0.14310485 -0.15828334 -0.30808672
0.142134 -0.15809645 -0.30560315
0.14206906 -0.15895584 -0.3049785
0.14120018 -0.15886994 -0.30271304
0.14023277 -0.15865624 -0.30025274
0.14016867 -0.1595047 -0.29963604
0.13930064 -0.159391 -0.29738742
0.13843217 -0.15926553 -0.29514387
0.13766329 -0.15924934 -0.29310763
0.1376003 -0.16008294 -0.29250175
0.13663651 -0.15981317 -0.29008058
0.13607173 -0.16002224 -0.28846863
0.13600942 -0.16084681 -0.2878693
0.13555041 -0.16117708 -0.2864749
0.13527621 -0.16173334 -0.2854532
0.13521421 -0.16255398 -0.28485674
0.13475177 -0.1628672 -0.28346214
0.13422671 -0.16309498 -0.28194606
0.1333915 -0.1629188 -0.2798176
0.13333029 -0.1637289 -0.27922878
0.120310806 -0.14775187 -0.253008
0.097442284 -0.11876178 -0.207439
0.09739855 -0.11934059 -0.20701829
0.09664137 -0.118979946 -0.20519435
0.095628455 -0.11827056 -0.20287375
0.09558555 -0.11883848 -0.20246096
0.09576865 -0.11970884 -0.20249017
0.09508688 -0.1194189 -0.20082958
0.09493205 -0.119832486 -0.2002003
0.094889395 -0.120396994 -0.19978999
0.09474496 -0.12082238 -0.19918215
0.09475685 -0.1214611 -0.19887787
0.094714224 -0.1220253 -0.19846778
0.094819725 -0.12279514 -0.19834346
0.09483446 -0.123440474 -0.19804327
0.09479173 -0.12400601 -0.19763221
0.09504766 -0.12499264 -0.19779395
0.095207594 -0.12584752 -0.19776966
0.09531886 -0.12663603 -0.19765086
0.09527581 -0.12720583 -0.1972367
0.09547433 -0.12812321 -0.19728217
0.09543501 -0.12870017 -0.19687416
0.09539183 -0.12927158 -0.19645882
0.09549189 -0.1300522 -0.1963144
0.09564248 -0.13090906 -0.19626422
0.09559914 -0.13148268 -0.19584729
0.09580096 -0.13241969 -0.19589119
0.09595457 -0.13328846 -0.19584277
0.09601575 -0.13402176 -0.19561982
0.095972136 -0.13459896 -0.19520028
0.09612746 -0.13547684 -0.19515163
0.09628608 -0.13636266 -0.19510761
0.09624227 -0.13694249 -0.19468616
0.09653951 -0.13804531 -0.19489664
0.096699975 -0.13894239 -0.19485158
0.0969074 -0.13991517 -0.19489159
0.096863195 -0.14050023 -0.19446632
0.097037576 -0.1414269 -0.1944427
0.097579785 -0.14293437 -0.19509181
0.09753518 -0.14352475 -0.1946627
0.09800989 -0.14493822 -0.19518177
0.099143706 -0.14740887 -0.19689763
0.09909826 -0.14801045 -0.19646038
0.10024466 -0.15052746 -0.19818531
0.10148641 -0.15321608 -0.20007354
0.102809414 -0.15605561 -0.20209853
0.10276204 -0.1566826 -0.20164281
0.10390391 -0.15925613 -0.20332596
0.10442164 -0.16082114 -0.20387971
0.10437339 -0.16145973 -0.20341556
0.10442859 -0.16226998 -0.20313624
0.10407805 -0.16240555 -0.20213272
0.104029894 -0.16304284 -0.2016695
0.103497535 -0.1628659 -0.2003468
0.10270756 -0.1622466 -0.19857167
0.10192384 -0.16162682 -0.19681345
0.10187667 -0.16225109 -0.19635971
0.101189025 -0.16177917 -0.19477923
0.10045502 -0.16121793 -0.19312242
0.100408524 -0.16183336 -0.19267508
0.09958395 -0.16109955 -0.19086817
0.098710164 -0.16026834 -0.18898164
0.09866448 -0.16087307 -0.18854207
0.097985014 -0.16036446 -0.18700264
0.097118676 -0.15951657 -0.18514463
0.096442185 -0.15899268 -0.18362115
0.09639755 -0.15958348 -0.18319173
0.09563121 -0.15888467 -0.18152131
0.094956495 -0.15833929 -0.18001379
0.09491254 -0.15892106 -0.17959093
0.09424473 -0.15837385 -0.17810279
0.09366856 -0.15798368 -0.17677577
0.09362518 -0.1585577 -0.17635854
0.092915975 -0.15791152 -0.17481232
0.09239026 -0.15759288 -0.17358185
0.091823824 -0.15719156 -0.17228654
0.091781296 -0.15775439 -0.17187744
0.091310054 -0.15751845 -0.17074834
0.09079078 -0.15718605 -0.16954221
0.09074871 -0.1577428 -0.16913754
0.09037342 -0.157671 -0.16817725
0.090090655 -0.15776931 -0.16737357
0.09004888 -0.1583222 -0.1669717
0.089674525 -0.15824008 -0.16601935
0.0893938 -0.15833235 -0.1652243
0.08901889 -0.15823965 -0.16427605
0.08897758 -0.15878642 -0.16387863
0.088696755 -0.15886849 -0.16308863
0.08832127 -0.15876247 -0.16214582
0.088280246 -0.15930536 -0.16175121
0.08800066 -0.1593799 -0.16096854
0.08772132 -0.15945117 -0.16018817
0.08768054 -0.15999083 -0.15979591
0.08735448 -0.15996373 -0.15894306
0.08702925 -0.15993384 -0.15809387
0.086797796 -0.16008726 -0.15739766
0.08675741 -0.16062179 -0.15700914
0.08657551 -0.16087075 -0.15639445
0.086438365 -0.16120817 -0.1558523
0.0863981 -0.16174108 -0.15546496
0.08612164 -0.16179182 -0.15470307
0.08593853 -0.16203012 -0.15409078
0.08589846 -0.16256045 -0.1537053
0.08571678 -0.16279836 -0.15309702
0.085534 -0.16303176 -0.15248822
0.08530466 -0.16316603 -0.1518077
0.08526484 -0.16369314 -0.15142457
0.08503641 -0.16382484 -0.15074785
0.08480693 -0.16395134 -0.15007104
0.0847673 -0.16447586 -0.14968978
0.084538065 -0.16459838 -0.14901575
0.08430901 -0.16471827 -0.14834355
0.084269576 -0.1652402 -0.14796418
0.08413507 -0.1655583 -0.14743918
0.08395419 -0.16577509 -0.14684416
0.08372567 -0.1658867 -0.14617774
0.08368645 -0.16640572 -0.14580049
0.0835052 -0.16661568 -0.14520805
0.083231516 -0.16662149 -0.14447717
0.0831925 -0.16713794 -0.14410178
0.082964644 -0.16723898 -0.14344272
0.08273769 -0.16733894 -0.14278659
0.08246313 -0.16733041 -0.14206094
0.082424425 -0.16784266 -0.1416886
0.08219605 -0.16793151 -0.14103453
0.08187849 -0.16781756 -0.14024997
0.08184003 -0.16832659 -0.13987999
0.08161201 -0.16840789 -0.13923083
0.0812029 -0.16807611 -0.13831736
0.08116474 -0.16858126 -0.13795018
0.0807524 -0.16823314 -0.13703673
0.08015809 -0.16746251 -0.13586153
0.079561286 -0.16667715 -0.13468745
0.0795239 -0.167172 -0.13432778
0.07878935 -0.16605446 -0.13296211
0.078054525 -0.1649249 -0.13160199
0.07801786 -0.1654101 -0.13124932
0.077280104 -0.16425666 -0.12989397
0.0764991 -0.16299036 -0.12848298
0.07646319 -0.16346554 -0.12813759
0.07563686 -0.16207395 -0.12667195
0.0748578 -0.16078144 -0.1252799
0.074122936 -0.15958185 -0.123956524
0.0740882 -0.16004154 -0.123622395
0.07335882 -0.15883787 -0.122315735
0.0728087 -0.15805352 -0.121265285
0.072774604 -0.15850478 -0.12093727
0.07214102 -0.1575058 -0.11977776
0.07173444 -0.15704794 -0.118937306
0.071700856 -0.15749246 -0.11861421
0.07129849 -0.15703566 -0.11778441
0.07098663 -0.15679474 -0.117081776
0.0706773 -0.15655541 -0.11638502
0.0706442 -0.15699346 -0.11606662
0.07042533 -0.15697137 -0.11549619
0.07016169 -0.15683493 -0.114866845
0.07012882 -0.15727007 -0.11455057
0.06991273 -0.15724684 -0.11398814
0.06974176 -0.15733382 -0.11348773
0.069709055 -0.15776671 -0.113173075
0.06953942 -0.15785359 -0.11267626
0.06932397 -0.15782204 -0.1121199
0.06910873 -0.15778796 -0.11156543
0.06907629 -0.15821734 -0.111253336
0.068904996 -0.15829119 -0.11075897
0.06869129 -0.15825376 -0.11021034
0.068659015 -0.15868089 -0.10989988
0.06848811 -0.15874955 -0.109409265
0.0682291 -0.15858734 -0.10880579
0.06819703 -0.15901189 -0.108497195
0.06798193 -0.1589586 -0.107953206
0.0677236 -0.15878895 -0.10735544
0.06755235 -0.15884432 -0.106870905
0.06752057 -0.15926501 -0.106565125
0.06726171 -0.15908512 -0.10597133
0.06704762 -0.15902022 -0.105436146
0.06701605 -0.159438 -0.105132475
0.066803515 -0.15937252 -0.104601674
0.06658866 -0.15929782 -0.104069605
0.06655729 -0.15971301 -0.10376782
0.06629979 -0.15951864 -0.10318525
0.066130824 -0.15955985 -0.102714255
0.06587388 -0.15935999 -0.10213606
0.06584282 -0.15977103 -0.1018373
0.06562885 -0.1596827 -0.101314716
0.065328926 -0.15935583 -0.100688994
0.06529811 -0.15976366 -0.10039257
0.06517058 -0.15990497 -0.09997911
0.064918935 -0.15970153 -0.09941691
0.06488829 -0.16010709 -0.09912212
0.064630605 -0.15988111 -0.09855568
0.064377576 -0.15966421 -0.09799685
0.064207874 -0.15967672 -0.09753899
0.06417755 -0.16007808 -0.09724726
0.063971244 -0.15998384 -0.096748166
0.06384448 -0.1601113 -0.09634404
0.0638143 -0.16051072 -0.09605372
0.06370413 -0.16068278 -0.095670246
0.06358865 -0.1608383 -0.095281325
0.063558556 -0.16123654 -0.09499186
0.06338173 -0.1612139 -0.09453354
0.063265756 -0.16136378 -0.0941463
0.063088246 -0.16133457 -0.09368958
0.06305836 -0.16173008 -0.09340211
0.062349003 -0.160153 -0.0923451
0.062396888 -0.16076903 -0.092148475
0.062367335 -0.1611602 -0.09186415
0.4692875 -0.3642744 -1.0770895
0.35471287 -0.27665585 -0.81601983
0.35454822 -0.27883518 -0.8144358
0.34293935 -0.2718034 -0.7870158
0.33668676 -0.2689657 -0.7717493
0.3303389 -0.2659686 -0.7563112
0.33018553 -0.26799858 -0.75483567
0.32400414 -0.26501563 -0.73983616
0.3177493 -0.2618903 -0.72471446
0.3176017 -0.2638438 -0.72329456
0.31175894 -0.26094654 -0.70915747
0.3059181 -0.2579744 -0.69506484
0.3057759 -0.25985602 -0.6936972
0.30128708 -0.25794768 -0.6826695
0.2971677 -0.2563054 -0.6724923
0.29241383 -0.2540476 -0.6609378
0.29227784 -0.2558474 -0.6596296
0.28887257 -0.25470838 -0.6511021
0.28711057 -0.25501335 -0.6462207
0.28697693 -0.25678214 -0.644935
0.27141166 -0.24436562 -0.60973716
0.2090045 -0.18836337 -0.4718769
0.20890811 -0.18963912 -0.47094962
0.18177626 -0.16551217 -0.41089854
0.17466983 -0.15996958 -0.39476258
0.17044872 -0.15708168 -0.38496605
0.17037067 -0.15811479 -0.38421512
0.16757251 -0.15651791 -0.3775545
0.16506432 -0.15516622 -0.3715423
0.16498874 -0.15616655 -0.37081522
0.16328046 -0.15555479 -0.36655852
0.1613811 -0.15473066 -0.3619011
0.16130717 -0.15570895 -0.36119002
0.15979458 -0.15523711 -0.35738426
0.15850422 -0.15497103 -0.35406613
0.15731807 -0.1547947 -0.35098016
0.15724598 -0.15574892 -0.3502866
0.15616138 -0.15565471 -0.3474297
0.15498044 -0.15544613 -0.34437463
0.15490937 -0.1563868 -0.3436909
0.15372998 -0.15615684 -0.34065115
